# .PCD v0.7 - Point Cloud Data file format
VERSION 0.7
FIELDS x y z rgb
SIZE 4 4 4 4
TYPE F F F U
COUNT 1 1 1 1
WIDTH 1031
HEIGHT 1
VIEWPOINT 0 0 0 1 0 0 0
POINTS 1031
DATA ascii
-0.50114143 -0.95966059 0.1212348 4288282419
-0.86841619 -0.42047036 0.099828474 4294934272
0.14239056 0.8540343 -0.084748767 4288282419
0.29608145 0.85114276 -0.086019672 4288282419
-0.55778897 0.43950459 -0.060740542 4288282419
0.10231259 0.86259794 -0.086291999 4288282419
-0.66380012 -1.0115443 0.14769571 4288282419
-0.71043593 0.85157847 0.10437716 4294934272
-0.67609167 0.14614052 -0.043528691 4288282419
1.0093517 0.38110211 0.015427389 4294928127
0.18274644 0.85939002 -0.086019672 4288282419
-0.51342553 0.27978942 -0.052387722 4288282419
0.4493176 0.83448052 -0.087018251 4288282419
-0.29771161 0.29357436 0.1107995 4279880729
0.25578886 0.85198051 -0.085474998 4288282419
0.33640715 0.84945464 -0.086564355 4288282419
-0.24848989 0.052475434 -0.043986816 4288282419
-0.18153878 0.82163626 -0.082479283 4288282419
0.48756352 0.82022023 -0.085747316 4288282419
0.69763774 0.75281972 -0.08365941 4294934272
0.52758992 0.81494337 -0.086382776 4288282419
0.90768999 -0.90598416 0.080166996 4294934272
0.94703084 0.36868727 0.022125885 4288282419
0.40888354 0.83714837 -0.086201221 4288282419
-0.11059483 0.8414377 -0.084476411 4288282419
0.72823 -0.56303149 0.1133818 4294934272
-0.18022026 0.2908982 0.065814987 4288282419
-0.28511047 0.033397745 -0.042168342 4288282419
-0.86315393 0.63932496 0.045682333 4294934272
-0.32298818 0.020306978 -0.042428125 4288282419
-0.78425467 0.72409707 0.0059481948 4294934272
0.83962661 -0.2682212 0.0545834 4288282419
-0.29239103 0.80215847 -0.082570054 4288282419
-0.75570959 -0.27615541 -0.022336449 4288282419
-0.03751738 0.84429878 -0.083750188 4288282419
-0.14666244 0.30662754 -0.057546776 4288256409
0.78271896 -0.0070536765 -0.025008745 4294934272
-0.24074301 0.30924496 0.085843585 4288282419
0.69799262 -0.65757221 0.13008252 4294934272
0.78503662 0.0649378 -0.040132049 4288282419
-0.1637221 0.28198418 0.043563344 4288282419
0.67870176 -0.58395863 0.097925425 4288282419
-0.52133834 -0.89529413 0.10136181 4288282419
0.82689571 -0.27415803 0.001143688 4288282419
-0.25685263 0.29847428 0.061944745 4294934272
-0.79786611 -0.34501493 -0.01903454 4294934272
0.71250343 -0.58093143 0.091051191 4294934272
0.11894105 0.33754951 -0.059723638 4288282419
0.04065156 0.33688492 -0.059838194 4288282419
0.81374252 -0.25507003 0.037376609 4288282419
0.7242294 0.17840861 -0.057088505 4294928127
-0.50957757 -1.0588025 0.13183831 4288282419
0.83853322 -0.33113694 0.0097041521 4294934272
-0.28799051 0.27861375 0.088224567 4294934272
-0.14028421 0.30478421 0.11380402 4288282419
-0.28186074 0.25421464 -0.02869251 4294934272
0.84755516 0.42988923 -0.066867426 4288282419
0.68244767 0.19185035 -0.05559909 4288282419
-0.66890377 0.84739906 -0.0030466651 4294934272
-0.62574905 -1.0215691 0.14156362 4288282419
-0.84495008 0.43846741 -0.057515014 4288282419
1.0352308 -0.49732536 -0.023334078 4288282419
0.71506548 -0.63663864 0.16413409 4288282419
0.84235811 -0.41821951 0.024379246 4286526208
-0.58226115 -0.95355445 0.12425911 4288282419
0.81297988 -0.22125337 0.012455806 4294934272
0.78248101 0.042560197 -0.012468753 4294934272
-0.78370214 0.73051399 -0.030048007 4294934272
0.002154696 0.33140883 -0.059036192 4288282419
-0.070457913 0.32391056 -0.058921631 4288282419
-0.6256904 0.61078125 -0.067046836 4288282419
-0.84949535 0.66156363 -0.025284624 4294934272
0.80538291 -0.19408906 0.008560406 4294934272
0.45140857 0.61362779 -0.075860113 4288282419
0.82536155 -0.32885915 0.047729939 4294934272
-0.1082897 0.31538564 -0.058119629 4294934272
0.16279912 0.33579642 -0.059609048 4288282419
0.079411708 0.33893785 -0.060067344 4288282419
-0.60574305 -0.99064058 0.13245422 4288256409
-0.68363017 0.57066661 -0.064686574 4288282419
0.69729489 0.54039198 -0.075464852 4288282419
-0.15992759 0.27585775 -0.050787125 4294934272
1.0527457 -0.53137749 -0.022814484 4294934272
0.83281577 -0.30022112 0.023454592 4294934272
0.53704149 0.58744085 -0.074674293 4288282419
-0.68362451 -1.0416383 0.17215443 4288282419
0.8401081 -0.20140947 -0.035024293 4288282419
-0.74090761 0.53110665 -0.062870987 4288282419
-0.51897293 0.46465775 -0.062420495 4288282419
0.90688735 -0.9551518 0.068037614 4294934272
-0.73934031 0.78442669 -0.034662526 4294934272
0.88498479 -0.73307824 0.058498811 4288282419
-0.77563649 0.73974025 0.039904419 4294934272
-0.81760412 0.46316233 -0.058785919 4288282419
-0.10456833 0.62587214 -0.073389597 4288282419
0.87398762 -0.37467417 0.083101861 4294934272
0.79672885 -0.092040032 0.011013003 4294934272
0.87548906 -0.75592023 0.063023627 4294934272
0.87639117 0.39680254 -0.063507512 4288282419
-0.72046757 0.82893085 -0.076106228 4294934272
0.84642029 -0.38256261 0.0350262 4294934272
0.6951586 -0.64876997 0.10422681 4288282419
0.85284996 -0.39103684 0.01765315 4286526208
-0.350831 0.21955074 -0.049755976 4294934272
-0.57557219 0.65524346 -0.071222678 4288282419
-0.28393152 0.28033954 0.13744132 4288282419
0.88310975 -0.78699595 0.049535092 4294934272
0.89409488 -0.80802876 0.077531882 4294934272
0.03693077 0.64419925 -0.074871913 4288282419
0.84119642 -0.35582295 0.08528056 4294934272
-0.5878703 0.41075778 -0.057874732 4288282419
-0.034141615 0.63722152 -0.074278995 4288282419
0.78166187 0.024675269 -0.0089464812 4294934272
0.68557072 -0.56116259 0.079655394 4294934272
0.90023959 -0.88126129 0.052132927 4294934272
-0.17405021 0.6102035 -0.072203748 4288282419
0.79736108 -0.1399428 -0.020746633 4294934272
0.91621512 -0.97430444 0.066203229 4294934272
0.89936805 -0.84861583 0.064613424 4294934272
0.17975247 0.6439805 -0.074970745 4288282419
0.18855231 0.21953075 -0.054132443 4288282419
0.10834689 0.64724714 -0.075267203 4288282419
0.88817024 -0.38105252 0.063576087 4294934272
0.14410485 0.64717388 -0.075366013 4288282419
-0.85716105 0.65586811 0.0095858062 4294934272
0.81028527 -0.25910869 0.001143688 4294934272
-0.73040408 0.29752523 -0.051154908 4288282419
-0.46871442 -1.0170394 0.12149499 4288282419
0.31637403 0.63637739 -0.075860113 4288282419
-0.3548573 0.5574407 -0.069634423 4288282419
-0.64914602 -0.99432033 0.13675232 4288282419
0.91434795 -0.14759348 -0.038601331 4288282419
0.78364652 -0.059179075 0.0066368813 4294934272
0.82828683 -0.38509569 0.004073048 4294934272
0.072665974 0.6427747 -0.074377805 4288282419
0.0015081962 0.63823831 -0.073982544 4288282419
0.91954339 -1.0085269 0.066080943 4294934272
-0.54219246 -1.0342151 0.13503936 4294934272
-0.069365278 0.6312049 -0.073686056 4288282419
-0.61146134 -1.0323997 0.14437777 4288282419
-0.79512036 0.4875018 -0.060601503 4288282419
0.82318193 -0.23249263 -0.025412334 4288282419
0.68099344 0.53224105 -0.072697848 4288282419
-0.077374823 0.20077582 -0.051686607 4288282419
0.79334384 -0.09304627 0.032447513 4294934272
-0.13915218 0.61651778 -0.072401397 4288282419
0.70898318 -0.65511656 0.076812312 4288282419
-0.86226189 0.67645788 0.088607222 4294934272
-0.54074079 0.25484744 -0.049932815 4288282419
-0.77936864 0.25091588 -0.048486743 4288282419
-0.79893517 0.75220054 0.084975839 4294934272
0.82534909 -0.34855223 0.033078518 4294934272
-0.76311123 0.50504106 -0.060510729 4288282419
0.84082431 -0.36327347 0.015085011 4294934272
-0.38370886 0.35991657 -0.058364905 4294934272
0.11744078 0.22153132 -0.053887863 4288282419
0.15302329 0.22149341 -0.054132443 4288282419
0.081212796 0.22151051 -0.053887863 4288282419
-0.50820631 -0.0049921833 -0.037256096 4288282419
-0.86759645 -0.42260996 0.12056634 4294934272
1.0002775 0.37831894 -0.013378872 4294928127
1.0259638 0.25003248 -0.053823069 4294934272
-0.65419298 0.36713615 -0.05589832 4288282419
0.78146386 0.011205332 0.01584563 4294934272
-0.14274077 0.18791983 -0.051197447 4288282419
1.0448934 0.46593928 0.032998867 4288282419
-0.73190248 0.83019757 0.1053177 4294934272
0.81746471 -0.3005099 -0.010344923 4294934272
-0.67745286 0.33940938 -0.05313132 4288282419
-0.32281023 0.78327149 -0.080300599 4288282419
0.88865197 -0.11243168 -0.041169472 4288282419
0.52596027 0.4098829 -0.065195963 4288282419
0.91291624 -0.91690987 0.064980313 4294934272
-0.48049155 0.014781648 -0.038234446 4288282419
0.78610474 -0.059558589 0.027605293 4294934272
0.7148248 -0.65874058 0.14020193 4288282419
-0.2214489 0.29891947 0.063210018 4288282419
0.72411835 -0.66194659 0.12603086 4288282419
0.30445981 0.10435622 -0.048533015 4288282419
0.045284346 0.47221139 -0.065836355 4288282419
0.82632887 -0.42338499 0.028414898 4294934272
0.80913413 -0.23718737 0.016007498 4288282419
-0.53429043 -0.027073504 -0.035788585 4288282419
1.0533348 -0.35629424 -0.028695632 4288282419
0.76398623 0.06935557 0.030449947 4294934272
0.34149393 0.10010561 -0.049312361 4288282419
-0.1787357 0.18421948 -0.052175771 4294934272
-0.70562571 0.32117975 -0.052736055 4288282419
-0.15203542 0.084921211 -0.04580529 4288282419
0.26733112 0.10696508 -0.047623791 4288282419
0.89520544 -0.81685537 0.063390508 4294934272
0.71809626 0.58046371 -0.053974651 4288282419
0.3768194 0.087862767 -0.048143357 4288282419
-0.7323553 -0.24802376 -0.022947887 4288282419
0.47099125 0.058019724 -0.047364008 4288282419
-0.82383597 0.20117497 -0.045324478 4288282419
-0.75557142 0.27503988 -0.049969055 4288282419
0.33937263 0.45774731 -0.066583507 4288282419
0.30734959 0.46102017 -0.066263296 4288282419
-0.74219364 0.76730311 0.038633268 4294934272
-0.56167185 -0.046643764 -0.035299424 4288282419
0.7098667 0.61145431 -0.058967497 4294934272
0.27556473 0.46596751 -0.066476785 4288282419
0.74984396 0.28043482 -0.0037737887 4288256409
0.10950238 0.47647229 -0.066583507 4288282419
0.69882518 -0.63852131 0.14056504 4294934272
0.50154316 0.046418924 -0.047104228 4288282419
-0.09264832 0.45769122 -0.065089211 4288282419
0.49814311 0.42990321 -0.067864329 4288282419
0.2223094 0.84773129 -0.084204093 4288282419
-0.21338375 0.062875032 -0.043986816 4294934272
0.20616877 0.47615138 -0.067330658 4288282419
1.052489 0.80415034 -0.081973992 4288282419
0.37101564 0.45193714 -0.066476785 4288282419
0.863455 -0.38577703 0.050291579 4294934272
-0.30218846 0.28074253 0.062689021 4294934272
0.7971518 -0.10644488 -0.027717309 4294934272
-0.3162134 0.23716968 -0.051130835 4294934272
0.14172265 0.47782898 -0.067010447 4288282419
0.43490157 0.44295815 -0.067330658 4288282419
0.69583428 -0.5736081 0.066291101 4294934272
0.077315219 0.47727883 -0.066796996 4288282419
-0.6928913 -0.1947308 -0.025760636 4288282419
-0.032158718 0.11521522 -0.04866292 4288282419
-0.65337604 0.86681455 0.031815328 4294934272
0.46550974 0.43240052 -0.066583507 4288282419
0.11984544 0.1219992 -0.048533015 4288282419
0.58359379 0.39792156 -0.066476785 4288282419
0.44023931 0.069223322 -0.047753669 4288282419
-0.66682816 -1.043552 0.16093369 4288282419
0.40224078 0.44407645 -0.066049844 4288282419
0.17370862 0.47236758 -0.066049844 4288282419
0.23771526 0.46699771 -0.065836355 4288282419
0.029763147 0.11632821 -0.047493886 4288282419
0.8175894 -0.28408012 0.041646034 4288282419
-0.44561708 0.31797624 -0.054308966 4294934272
-0.12000316 0.090557985 -0.045545507 4288282419
0.72665089 -0.64007509 0.17625502 4288282419
0.62407458 0.78633362 -0.085656546 4294934272
0.7051183 -0.56906879 0.10429962 4294934272
-0.18301992 0.074765988 -0.045025945 4288282419
0.71343356 0.60228735 -0.026354097 4288282419
-0.80403948 0.22996457 -0.047794994 4288282419
-0.70552826 0.12667683 -0.043528691 4288282419
0.36499754 0.31041297 -0.059265342 4288282419
-0.8689158 -0.40986869 0.078274131 4294934272
0.81864798 -0.29920471 0.0073805936 4294934272
-0.6535812 -0.14684711 -0.028451052 4288282419
-0.55771106 -1.0470434 0.13162385 4288256409
-0.83465582 0.75416529 -0.072883099 4294934272
0.76382411 0.21201178 -0.043635421 4288282419
-0.79434991 0.023465862 -0.036911115 4288282419
-0.41106582 0.34325251 -0.056870602 4294934272
0.97597671 -0.39409572 -0.025801992 4288282419
1.0675277 0.035091516 0.02736499 4294934272
0.70570928 0.65572745 -0.0025097034 4286526208
0.81705719 -0.30080855 0.026204281 4294934272
0.73403174 0.41540465 -0.025923893 4294934272
-0.5943892 -1.0232044 0.13532002 4294934272
0.69476509 -0.64911836 0.079150364 4294934272
0.2973246 0.31702092 -0.058119629 4288282419
0.26322246 0.32005438 -0.057775922 4288282419
0.881778 0.19412881 -0.053348329 4288282419
0.96662235 -0.047021892 -0.044027448 4288282419
-0.71662956 0.8449679 0.080180563 4294934272
-0.034231581 0.46064919 -0.064342082 4288282419
-0.15388401 0.28005877 0.020191927 4294934272
-0.78934848 0.79059809 -0.075031839 4294934272
0.16166127 -0.92919934 0.25005105 4288282419
0.035147611 0.85387778 -0.084839545 4288282419
-0.070308663 0.84068859 -0.08356864 4288282419
-0.0049655805 0.8530497 -0.085021093 4288282419
-0.68355405 0.86983413 -0.080155812 4294934272
0.68578702 -0.63072979 0.11625397 4294934272
-0.21390875 0.30135596 0.087761603 4288282419
-0.83680779 -0.023856821 -0.035096601 4288282419
-0.76588738 0.80643511 -0.075775638 4294934272
-0.24524052 0.27434605 -0.0067843576 4294934272
-0.85218084 0.69975609 0.099114053 4294934272
-0.83032036 0.67983699 0.008461453 4294934272
-0.77326798 0.05258641 -0.039045814 4288282419
0.79517978 -0.13918781 0.039957911 4294934272
0.94492567 -0.029460527 -0.043912888 4294934272
0.73300368 0.42802033 0.00042277787 4294934272
1.0543178 0.2318818 -0.054218363 4288282419
0.28107095 0.20311256 -0.052420352 4288282419
-0.74156421 0.82328826 -0.076684751 4294934272
-0.65546793 -1.0255597 0.14926596 4288282419
0.19655132 0.33623084 -0.060181905 4288282419
0.7040385 -0.55619854 0.088874355 4294934272
0.23047483 0.32921243 -0.059150781 4288282419
-0.27707604 0.29380509 0.13630605 4288282419
-0.29463607 0.26514557 0.08974576 4288282419
-0.60839009 -1.0495937 0.15753043 4288282419
0.72021395 -0.66877449 0.10182083 4294934272
0.81053877 -0.23564526 -0.0035034006 4288282419
-0.85582262 -0.053738132 -0.033068631 4288282419
0.75171584 0.26125643 -0.026548536 4288282419
-0.27315134 0.59477681 -0.072994336 4294934272
0.71380913 0.60339433 0.0047097723 4288282419
-0.23918124 0.3029716 0.11155063 4288282419
0.42645136 0.29417929 -0.058577925 4288282419
0.45473319 0.287047 -0.058577925 4288282419
0.52160645 0.14087979 -0.051564302 4288282419
0.019466545 0.20970938 -0.051442027 4288282419
-0.72974062 0.10115989 -0.041927662 4288282419
-0.24255472 0.30201605 0.037199713 4294934272
-0.046642002 0.20188731 -0.050952837 4288282419
0.56507814 0.24953818 -0.057775922 4288282419
-0.20752564 0.31638432 0.11085727 4288282419
-0.21599795 0.28404602 -0.05559909 4294934272
-0.66527933 0.87630308 0.067053556 4294934272
0.48247099 0.27796513 -0.058234219 4288282419
-0.81243414 0.77185303 -0.073874831 4294934272
0.05478679 0.2095814 -0.050952837 4288282419
-0.032403097 0.3323305 -0.059952755 4294934272
0.67317736 -0.032506585 -0.046974324 4288282419
-0.25637606 0.27000192 -0.054682527 4294934272
0.32649601 0.31491226 -0.058692485 4288282419
-0.78612357 0.77592504 0.1075668 4294934272
-0.25835031 0.28704262 0.014472823 4294934272
-0.74651039 0.073675305 -0.03915254 4288282419
0.5920608 0.23863144 -0.057546776 4288282419
0.83851397 -0.35579219 0.049864639 4294934272
0.51067889 0.27056348 -0.058463339 4288282419
-0.79838538 0.72202307 0.040597759 4294934272
0.58175564 0.12259731 -0.052664932 4288282419
0.70555705 -0.64808065 0.11486641 4288282419
0.76043797 0.19983795 -0.015974697 4294928127
0.39742154 0.29795641 -0.057890482 4288282419
-0.81282461 -0.00016114631 -0.035523541 4288282419
-0.18447874 0.29925552 -0.057546776 4288256409
0.80246872 0.69226974 -0.079665147 4288282419
0.86556131 -0.33270845 0.060315002 4294934272
-0.67704004 -0.011261399 -0.0372678 4288282419
-0.809892 0.70603365 -0.028485009 4294934272
-0.14183454 0.82523149 -0.082116179 4288282419
0.69641286 -0.58336526 0.094488308 4294934272
-0.29531035 0.27566561 0.014654402 4294934272
0.5375576 0.25898951 -0.057775922 4288282419
-0.66071421 0.59564853 -0.067137606 4288282419
0.75131774 0.24840125 0.0015821874 4288282419
-0.67800283 -0.16881712 -0.028206471 4288282419
0.92904383 -1.0488011 0.064001977 4294934272
-0.56467438 -0.16269656 -0.030348219 4288282419
-0.15080211 0.45108494 -0.065516144 4288282419
-0.27780738 0.2740761 -0.03274845 4294934272
0.82425284 -0.3301037 0.012150016 4294934272
-0.4635267 0.14914981 -0.044256598 4288282419
0.82930499 -0.35962233 -0.00099271443 4294934272
0.56608337 0.58192807 -0.075168394 4288282419
-0.15881699 0.28314134 -0.0046102987 4288256409
0.72521424 0.51387244 -0.042627245 4288282419
0.696697 -0.63237637 0.076032966 4294934272
-0.10238133 0.18844697 -0.049485356 4288282419
0.062204991 0.8546043 -0.084839545 4288282419
0.68892741 0.068275861 -0.051564302 4288282419
0.95268518 0.39588746 0.047813896 4294928127
0.84504199 0.072097249 -0.049412265 4294934272
-0.14405459 0.29706132 0.090274863 4288282419
0.8391481 -0.38911319 0.0548812 4294934272
-0.85204977 0.66150481 0.078801312 4294934272
0.84087253 -0.39194387 0.0027741382 4294934272
0.76635349 0.10103018 0.025003197 4288282419
0.76726592 0.13637336 -0.052963961 4288256409
0.74207097 0.15008385 -0.052963961 4288282419
-0.58242726 -1.0478073 0.13798818 4288282419
0.7874065 0.11400732 -0.050672565 4294934272
0.68618304 -0.60147393 0.11219803 4294934272
-0.14942361 0.28328237 0.067898966 4288282419
-0.80636686 0.76709795 0.11945194 4294934272
-0.30285576 0.12299451 -0.045571979 4294934272
0.71607685 -0.588498 0.077943295 4294934272
0.93015015 -0.0031016618 -0.046662576 4288282419
0.77302819 0.057739045 0.008532865 4294934272
-0.71738625 0.55347192 -0.064595796 4288282419
-0.72419345 0.84779131 0.1042136 4294934272
0.76768357 0.12185504 -0.0024362397 4288282419
-0.20113565 0.16352929 -0.048262425 4288282419
-0.65308994 0.86608291 -0.0046339966 4294934272
-0.38150856 0.20832068 -0.049755976 4288282419
0.87459129 -0.2648446 0.049049426 4288282419
0.62829405 0.55948508 -0.074476644 4288282419
0.92324245 -1.0056559 0.07947956 4294934272
0.72175813 -0.5504474 0.11278888 4294934272
0.82377344 -0.3150745 0.02757911 4288282419
-0.49121511 0.14215451 -0.045631457 4288282419
0.3696247 0.84697264 -0.086927451 4288282419
0.71899587 -0.60649151 0.080144569 4294934272
-0.76358008 0.75146097 -0.031610977 4294934272
0.45103708 0.16776568 -0.052664932 4288282419
0.7596066 0.18323237 -0.037444785 4288282419
0.64902669 0.77509105 -0.084930316 4294934272
0.92438251 0.36415863 -0.062420495 4288282419
0.72362703 0.50987744 -0.012056553 4288282419
-0.087471403 0.096780725 -0.045675412 4288282419
-0.82812345 0.74636334 0.1201373 4294934272
0.69389045 0.80696547 -0.058750834 4294934272
-0.55093288 -1.0064951 0.13269119 4288282419
-0.81836742 -0.37469441 -0.01854538 4288282419
0.79612839 0.091272734 -0.047006287 4288282419
0.7616837 0.0012978405 -0.045816559 4294934272
-0.83203191 -0.40395138 -0.016955562 4294934272
-0.50866354 0.12547274 -0.043912888 4288282419
0.72814363 -0.57187599 0.086697511 4294934272
-0.72983348 -0.082013644 -0.031768423 4288282419
-0.71653926 -0.056869157 -0.034403522 4288282419
0.83833015 -0.33138821 -0.008266638 4294934272
0.40287033 0.17617962 -0.051564302 4288282419
-0.65618408 0.85329568 0.033202033 4294934272
-0.49191019 0.4758788 -0.062519304 4288282419
0.75500453 0.23360944 -0.021706315 4288256409
-0.63578093 -1.049216 0.16577148 4288282419
0.3080878 0.20274842 -0.053398702 4288282419
0.04565027 0.22096279 -0.054010168 4288282419
0.71606994 0.64506626 -0.033461556 4288282419
0.72079033 -0.62305462 0.16219896 4288282419
-0.61708653 -0.10672493 -0.03077461 4288282419
-0.56584966 0.076871991 -0.040246636 4288282419
-0.61187702 -1.0473069 0.14437777 4288282419
-0.79838479 0.76941663 0.10760769 4294934272
0.77098662 0.12412855 -0.026984723 4288282419
-0.74768072 -0.10941043 -0.02959156 4288282419
-0.35146055 0.38041672 -0.060499601 4294934272
0.79035026 -0.11196721 0.036005072 4294934272
-0.011786049 0.20780915 -0.051564302 4288282419
-0.59596503 0.63883573 -0.069770195 4288282419
0.73312265 -0.6529215 0.14992712 4288282419
-0.83301622 0.72968471 0.10928427 4294934272
-0.78228647 -0.1368842 -0.030393563 4288282419
-0.49101695 -1.0175656 0.12563732 4288256409
0.47708133 0.16149114 -0.053031817 4288282419
0.60130739 0.0069961078 -0.047623791 4288282419
-0.81096923 0.7008729 0.0071386718 4294934272
0.20893359 0.6385597 -0.074180156 4288282419
-0.76335007 -0.43448138 -0.016319908 4288282419
-0.52426153 0.68369073 -0.072856687 4288282419
-0.69850945 -0.34370473 -0.018138411 4288282419
-0.60828847 0.049800683 -0.040017489 4288282419
-0.80926126 -0.54859233 -0.0099552348 4288282419
0.65526122 0.54742473 -0.073883705 4288282419
0.21982746 0.21509749 -0.053643283 4288282419
-0.81676996 0.69852889 0.042100023 4294934272
0.65995932 0.0803186 -0.050952837 4288282419
0.8344143 -0.36736566 0.087731592 4294934272
0.55876046 0.40741265 -0.066796996 4288282419
-0.83002788 0.68411565 -0.02692204 4294934272
0.60588652 0.38131666 -0.064555541 4288282419
0.018673884 0.47387001 -0.066476785 4288282419
-0.066968635 0.46596611 -0.066263296 4288282419
0.8305074 -0.39217272 0.022177992 4294934272
-0.24339716 0.28756213 -0.0093536815 4294934272
0.8390581 -0.40317211 0.057015911 4294934272
0.5934422 0.56746691 -0.073883705 4288282419
0.76259691 0.13323425 0.020010348 4288282419
-0.69075066 -0.038196646 -0.034059815 4288282419
-0.25483197 0.14513063 -0.04728407 4288282419
-0.34887514 0.098758876 -0.043737609 4294934272
-0.54804736 -0.8954941 0.10582596 4288282419
-0.14789046 0.28997967 0.13966255 4288282419
0.77527177 0.10313132 -0.023355724 4288282419
-0.77092636 -0.1235787 -0.03085186 4288282419
0.74958509 0.30529931 0.018604625 4288256409
-0.80243742 -0.53106952 -0.010734581 4288282419
0.70586127 0.053400002 -0.050219096 4288282419
-0.60437518 -0.081635632 -0.03407649 4288282419
0.83463305 -0.30871516 0.0062799663 4294934272
-0.16658103 0.29652539 0.016651535 4288256409
0.33327734 0.19165763 -0.051686607 4288282419
0.63477403 0.089241877 -0.050219096 4288282419
0.78274971 0.27197888 -0.057617754 4288282419
0.00049239071 0.11843155 -0.04866292 4288282419
0.39071622 0.61463201 -0.073686056 4288282419
0.69899338 0.63661116 -0.062780216 4294934272
-0.86484647 0.16463928 -0.04443511 4288282419
-0.47325692 0.49002787 -0.063902803 4288282419
0.24601556 0.20811479 -0.052542657 4288282419
0.36144024 0.19614534 -0.054254748 4288282419
-0.49480551 0.69949174 -0.073855266 4288282419
0.55420375 0.12541598 -0.050708257 4288282419
0.43038258 0.17591281 -0.053276397 4288282419
0.83644468 -0.29078633 0.039831534 4294934272
0.78762561 -0.0066682664 -0.0037164511 4294934272
-0.012900829 0.46475416 -0.064875752 4288282419
-0.26314923 0.30507445 0.035794739 4294934272
-0.32835963 0.24213874 -0.053193107 4294934272
0.21078217 0.11837491 -0.048922703 4288282419
-0.50049025 0.27734712 -0.050679963 4288282419
0.70456243 -0.66704106 0.10479967 4288282419
0.73367673 -0.66349483 0.11145088 4294934272
0.70770663 0.73891479 -0.081753053 4294934272
-0.50200093 -0.92015624 0.10824606 4288282419
0.6931296 -0.62988406 0.12761199 4288282419
0.81714058 -0.22164969 0.031185972 4288282419
-0.37303773 0.089102812 -0.043737609 4288282419
0.68623519 -0.56063217 0.066031314 4294934272
0.43878365 0.60993278 -0.074575454 4288282419
1.0207989 0.38746127 0.01364111 4294934272
-0.23206091 0.28750315 0.14624369 4288282419
0.78695893 -0.024348468 -0.00030093553 4294934272
-0.23099996 0.15773161 -0.048751585 4288282419
0.81293339 -0.25022322 -0.019827006 4288282419
0.23285633 0.63590449 -0.073982544 4288282419
0.57994592 0.010634847 -0.04606507 4288282419
-0.42740443 0.18378724 -0.048381146 4288282419
-0.28041226 0.13877553 -0.047650956 4294934272
-0.41817251 0.062746145 -0.042147793 4288282419
0.70971376 -0.67275655 0.09188462 4294934272
0.78658032 -0.0084695444 -0.047161795 4294934272
-0.51010668 -1.0268216 0.1314946 4288282419
-0.74900526 -0.40820569 -0.01748894 4288282419
0.062272586 0.12249512 -0.048792794 4288282419
-0.22598737 0.30586204 0.14466079 4288282419
-0.64854997 0.16730975 -0.044275843 4288282419
0.70456749 -0.66711265 0.07966993 4294934272
0.5794642 0.7984181 -0.085656546 4294928127
-0.61705917 -0.98460197 0.12998371 4288282419
-0.22134003 0.42460227 -0.062634297 4294934272
-0.60040742 -0.1993311 -0.02839984 4288282419
0.70532411 0.69244027 -0.040568989 4288256409
-0.52414453 -0.13290808 -0.030608002 4288282419
0.49943981 0.15880749 -0.054132443 4288282419
0.34476 0.62628001 -0.074575454 4288282419
-0.51616734 -1.0005338 0.1295469 4288282419
-0.11815979 0.44945404 -0.06402187 4288282419
0.30286008 0.62896281 -0.073982544 4288282419
-0.69485259 -0.18065339 -0.028817937 4288282419
0.72153223 0.036644485 -0.0483847 4294934272
0.64445519 -0.016999895 -0.046974324 4288282419
0.091408134 0.11839584 -0.047493886 4288282419
0.70346707 -0.65111619 0.1412005 4288282419
-0.39342573 0.070773169 -0.041414052 4288282419
1.0654284 -0.58486688 -0.019047633 4288282419
-0.82190746 -0.19771485 -0.026841871 4288282419
0.68953311 0.83788347 -0.063626871 4294934272
0.91030997 -0.13275792 -0.040802587 4288282419
0.74455065 0.31882599 -0.0099467672 4294934272
0.72120172 -0.65735716 0.15207587 4288282419
-0.45621741 0.033341449 -0.039579656 4288282419
-0.69032258 0.87294191 0.091207437 4294934272
-0.37020981 -0.0034921584 -0.041388996 4288282419
-0.064578339 0.1101687 -0.048403136 4288282419
0.91631418 -0.97425067 0.080510698 4294934272
0.71042389 -0.6556778 0.12771082 4288282419
-0.11718004 0.30637681 -0.056286503 4288256409
0.80249149 -0.17240511 -0.014876613 4288282419
0.41479558 0.6126883 -0.074180156 4288282419
-0.41136038 0.52351755 -0.066274509 4288282419
0.72546208 -0.66870749 0.087848984 4294934272
-0.70791352 0.8652277 0.10339575 4294934272
-0.71343386 -0.22119822 -0.0244154 4288282419
-0.58001113 -0.072506592 -0.032364398 4288282419
-0.63178796 0.38461277 -0.056985334 4288282419
0.70387334 -0.62720466 0.086503759 4294934272
-0.73797333 0.82088876 0.081484124 4294934272
-0.47212061 0.71150559 -0.074672267 4288282419
-0.14482541 0.28624579 -0.0047091078 4288256409
0.72845739 0.4456974 -0.030825965 4288282419
-0.6128934 0.3961471 -0.057380628 4288282419
0.9069556 0.38063902 -0.063606352 4294928127
0.91745692 -0.0045524412 -0.044485744 4288282419
-0.83739734 -0.4241032 -0.015121194 4294934272
0.79260612 -0.07628116 -0.012405982 4294934272
0.77103293 0.090924203 0.0028012753 4294928127
0.74058253 0.38864779 -0.021748047 4294934272
-0.54626948 0.67056865 -0.071948908 4288282419
0.5311076 0.030716984 -0.045935195 4288282419
-0.23570523 0.29983339 0.15341198 4288282419
0.23868263 0.11165555 -0.047883574 4288282419
-0.055248562 0.10107607 -0.045545507 4288282419
-0.76123387 0.76371145 -0.033173975 4294934272
0.36819565 0.62030858 -0.074081354 4288282419
-0.52526796 0.10771833 -0.041965205 4288282419
-0.40975261 -0.040771402 -0.036712892 4288282419
0.96400404 0.3630794 -0.0078416923 4288282419
-0.75191295 -0.26307124 -0.023926238 4288282419
0.15313964 0.11863431 -0.047883574 4288282419
0.75892735 0.16563436 0.014926726 4288282419
0.82195377 -0.31689474 0.04634238 4294934272
-0.64041126 -0.12353668 -0.03101919 4288282419
0.9257254 -1.0401521 0.079250433 4294934272
0.69890481 -0.63685399 0.10182083 4294934272
0.40806606 0.07793805 -0.047623791 4288282419
-0.4523702 -0.069648266 -0.035154201 4288282419
-0.16311625 0.29299068 0.13907021 4288282419
0.72554481 -0.072917551 -0.044766162 4294934272
0.62966049 -0.009408216 -0.046974324 4288282419
0.69066405 -0.64917326 0.092618376 4294934272
-0.41752508 0.050633233 -0.039212771 4288282419
-0.56749731 -0.9818427 0.12842178 4288282419
-0.085440055 0.19155128 -0.049607631 4288282419
0.8337214 -0.28804138 0.021163169 4294934272
-0.11285932 0.19479316 -0.051564302 4288282419
-0.47777936 -0.9635272 0.11720858 4288282419
0.68732023 -0.04862133 -0.045025945 4288282419
0.17743318 0.12103406 -0.048922703 4288282419
-0.32641143 0.11121118 -0.044715934 4288282419
0.80101496 -0.16168131 0.0030610284 4288282419
0.81944853 -0.28709006 0.0049347589 4288282419
0.74039066 -0.094796106 -0.041908558 4294934272
-0.58303219 0.060011394 -0.038871776 4288282419
-0.85457009 -0.4740763 -0.011819284 4294934272
-0.48796582 -0.10240738 -0.032296568 4288282419
0.15698211 -0.94064474 0.25031346 4294934272
0.66849267 0.77015162 -0.085111864 4294934272
-0.51853162 0.26700914 -0.050253026 4288282419
-0.11642391 0.83071578 -0.082570054 4288282419
-0.54565632 0.44167024 -0.060147598 4288282419
0.17931746 0.21167447 -0.051931188 4288282419
0.07267414 0.21290907 -0.051686607 4288282419
-0.29897925 0.28805724 0.036951751 4294934272
0.53325194 0.14570528 -0.053765588 4288282419
-0.71976817 0.83310467 0.081111677 4294934272
-0.84953094 -0.45364147 -0.013531377 4294934272
-0.76904428 -0.45296925 -0.014631339 4288282419
0.81954944 -0.17686044 -0.036583014 4288282419
0.89862996 -0.86084336 0.06559176 4294934272
0.8618589 -0.37538514 0.084917441 4294934272
-0.67856181 -0.30518094 -0.0213857 4288282419
0.67700386 0.065464586 -0.049485356 4288282419
-0.041062266 0.32342872 -0.058005068 4288282419
0.20547982 0.32802534 -0.058348779 4288282419
-0.80196643 -0.18023983 -0.026269015 4288282419
-0.49479476 -0.99216276 0.12404752 4288282419
0.25614399 0.63630307 -0.074476644 4288282419
0.280054 0.63345516 -0.074377805 4288282419
-0.78805238 -0.50195515 -0.011513927 4288282419
0.98105168 -0.072772704 -0.041621465 4288282419
-0.29234233 0.25442782 -0.053422254 4294934272
0.82774144 -0.36095247 0.05242629 4294934272
-0.43301779 0.51685828 -0.066373318 4288282419
-0.14608899 0.095291339 -0.048273232 4288282419
-0.47274712 -0.081837818 -0.035024293 4288282419
-0.1132538 0.10132913 -0.048143357 4288282419
-0.14906207 0.29635695 0.11461293 4288282419
-0.7886439 0.77517062 0.095663093 4294934272
0.76258874 -0.10534789 -0.042947687 4294934272
-0.5255211 0.45119858 -0.060345247 4288282419
0.77941173 -0.12359078 -0.041518871 4294934272
0.37865716 0.19003519 -0.053643283 4288282419
0.14397763 0.21244609 -0.051686607 4288282419
-0.86758304 -0.27375868 -0.023061059 4288282419
-0.47361797 -0.98662323 0.11928685 4288282419
0.78337753 -0.025677172 0.022071322 4294934272
0.88653105 -0.78577369 0.063023627 4288282419
0.81301361 -0.27284393 -0.015150903 4288282419
0.82909107 -0.35977885 0.016674828 4294934272
-0.4357667 -0.051562309 -0.037362359 4288282419
0.79745585 -0.13988453 -0.040869433 4288282419
-0.78651315 -0.31848124 -0.021113519 4288282419
-0.43279642 0.043906704 -0.039335072 4288282419
-0.38376147 -0.011688425 -0.040869433 4288282419
0.90922344 -0.94055647 0.081198134 4294934272
0.74699461 0.027824556 -0.049729936 4294934272
0.80949211 -0.15684628 -0.039180834 4288282419
0.88422704 -0.79897714 0.050314438 4294934272
-0.54234087 -0.14771152 -0.030088438 4288282419
-0.40072241 0.19324864 -0.048037436 4288282419
0.90920389 -0.95782268 0.081770986 4294934272
0.89950192 -0.84861034 0.050184548 4288282419
-0.85333627 0.42749017 -0.056607235 4288282419
0.75971663 0.18896092 0.010932431 4288282419
-0.2969887 0.29111484 0.13600989 4288282419
0.78501374 -0.057253178 -0.0151557 4294934272
-0.84947407 -0.25488496 -0.022602763 4288282419
-0.2093983 0.30461311 0.11218619 4288282419
-0.44792312 0.17075764 -0.047464583 4288282419
0.19665304 0.21094561 -0.052053493 4288282419
-0.59690857 0.20924674 -0.046624023 4288282419
0.85858625 0.057944119 -0.048381146 4288282419
-0.38611537 -0.025152812 -0.037752021 4288282419
0.47942322 0.60360515 -0.075069554 4288282419
0.79220539 -0.11310506 -0.0050734789 4294934272
0.84005028 -0.32685709 0.063279636 4294934272
-0.84307969 -0.65976328 -0.0047595673 4288282419
0.25466132 0.32862473 -0.059609048 4288282419
-0.67825913 0.87060124 0.067102917 4294934272
0.87690157 -0.75539804 0.048106275 4294934272
-0.21141465 0.16918246 -0.050341401 4288282419
-0.58081859 0.42187607 -0.05935704 4288282419
-0.8151173 -0.57392526 -0.0080068558 4288282419
0.69592816 0.18653321 -0.055828236 4288282419
0.66167587 -0.036819041 -0.044376504 4288282419
0.71264929 0.17629661 -0.05536994 4288282419
-0.77834243 -0.47743136 -0.012942742 4288282419
-0.4664309 0.30135584 -0.052601207 4288282419
-0.72133988 0.79618263 -0.035183504 4294934272
-0.48392412 0.28930512 -0.05164057 4288282419
0.89720702 -0.82851249 0.063757382 4294934272
-0.17727149 0.084838673 -0.047364008 4294934272
-0.62286597 0.038102087 -0.039559223 4288282419
-0.73541015 0.78552109 0.0011861998 4294934272
-0.17589599 0.29524109 -0.007772564 4294934272
-0.34581468 0.00095739868 -0.039830305 4288282419
0.89263874 -0.81766957 0.049664982 4288282419
-0.66891104 -0.28346619 -0.023723736 4288282419
-0.34481534 0.23262198 -0.052276544 4294934272
0.88014519 -0.76674753 0.062901333 4288282419
-0.6519146 0.00055615127 -0.036007531 4288282419
-0.50839001 -0.11414626 -0.032556351 4288282419
-0.36192268 0.22310093 -0.051474541 4294934272
0.82018566 -0.35877323 0.035713617 4294934272
0.77444941 0.043087911 0.033718016 4294928127
-0.76761359 -0.3028523 -0.020012891 4288282419
-0.63982058 -0.24745604 -0.025412334 4288282419
-0.71593094 -0.36795124 -0.017359065 4288282419
0.91874248 -0.98572385 0.065836355 4294934272
-0.1921272 0.28991976 -0.05571365 4288256409
-0.57730907 -0.18457188 -0.027620494 4288282419
-0.74480504 0.83613175 0.11659627 4294934272
-0.53384757 -0.95425272 0.12381837 4288282419
0.83969617 -0.18998671 -0.037362359 4288282419
0.16138169 0.21360509 -0.052175771 4288282419
0.50289887 0.59807605 -0.075069554 4288282419
-0.24186465 0.41806716 -0.06220736 4294934272
0.74308491 0.32893428 0.015381496 4294934272
0.90433586 -0.92408288 0.053301945 4294934272
0.52593833 0.5908367 -0.074773103 4288282419
-0.67115843 0.15658844 -0.044916268 4288282419
0.7901035 -0.035013832 -0.041903213 4294934272
-0.23986238 0.28112459 -0.056286503 4294934272
0.91498089 -0.97446221 0.052262817 4294934272
-0.54981065 0.09477669 -0.042079762 4288282419
-0.65023392 -0.2699028 -0.022814484 4288282419
0.89081436 -0.38628718 0.045701973 4294934272
-0.45366803 0.50468987 -0.065385111 4288282419
0.98719013 -0.39577603 -0.028010152 4288282419
0.70232451 -0.064031959 -0.04346725 4294934272
1.0549105 -0.34504256 -0.03077461 4288282419
-0.60884428 -0.21906182 -0.025672115 4288282419
0.082649164 0.12670828 -0.049831953 4288282419
0.79624724 -0.13428609 -0.0015217864 4294934272
0.52765357 0.045610532 -0.049442265 4288282419
-0.24018884 0.28221354 -0.032321509 4294934272
-0.21349452 0.28742489 0.040836066 4294934272
0.69252646 0.82324773 -0.026549894 4294934272
-0.27738857 0.25438967 -0.052391104 4294934272
-0.023274804 0.10772596 -0.046324883 4288282419
-0.8632974 0.65882218 -0.025954468 4294934272
0.83701152 -0.34771201 0.013006062 4294934272
-0.83680481 -0.037927296 -0.03274845 4288282419
0.71709865 -0.63371527 0.17685026 4288282419
0.60513014 -0.0036046372 -0.045415629 4288282419
-0.84498537 0.18301724 -0.044929214 4288282419
-0.49007469 -0.94007081 0.11266238 4288282419
-0.19271049 0.080504604 -0.047234103 4294934272
-0.70488977 0.81172448 -0.036374357 4294934272
0.84434158 -0.39362806 0.037203036 4286526208
0.64715964 -0.028981829 -0.044376504 4288282419
-0.51617026 -0.93043065 0.11597623 4288282419
0.80367213 -0.17075428 0.024248185 4294934272
0.94598383 0.37885705 -0.0085854912 4294928127
0.8566401 -0.38759941 0.033995081 4294934272
-0.69248152 -0.32324284 -0.020736229 4288282419
0.90261769 -0.91264653 0.06742616 4288282419
0.82843119 -0.26948813 0.056362163 4288282419
-0.76253706 0.74392223 0.040135533 4294934272
-0.86216468 -0.76865041 0.0005659773 4288282419
1.0664712 -0.55895132 -0.022554703 4288282419
0.089717232 0.33198485 -0.058348779 4288282419
0.56164843 0.13361029 -0.053398702 4288282419
0.12832686 0.33126512 -0.058234219 4288282419
0.96185654 0.11126217 -0.048011571 4288282419
0.90442359 -0.89178884 0.051613346 4294934272
0.090667307 0.21316917 -0.051686607 4288282419
0.77773786 -0.068013102 -0.032975864 4294934272
-0.82094312 -0.59951496 -0.0061883824 4288282419
-0.65450358 0.35514739 -0.053724259 4288282419
-0.61392814 -1.0022749 0.13097191 4288282419
0.7116341 -0.5743987 0.076598078 4294934272
-0.70639384 0.85476846 0.092168465 4294934272
-0.73350179 -0.38254064 -0.018528068 4288282419
0.83261073 -0.41305175 0.042473294 4286526208
0.77875018 0.071972288 -0.017698754 4294934272
-0.67444247 0.84730196 -0.039649189 4294934272
1.0148798 0.071539253 -0.048225056 4288282419
-0.5802356 0.21987003 -0.046944238 4288282419
-0.83181363 -0.21193057 -0.026269015 4288282419
0.72877342 0.16658516 -0.055026233 4288282419
-0.61802453 0.19578341 -0.046303812 4288282419
-0.6957922 0.81704646 -0.00059953018 4294934272
-0.83853567 -0.23499928 -0.023748474 4288282419
-0.77520704 0.038387731 -0.036804389 4288282419
0.9046163 -0.92400664 0.06742616 4288282419
0.89870185 -0.88157493 0.066814698 4294934272
-0.63233292 0.17980576 -0.044809513 4288282419
0.84165549 -0.39119127 0.019854434 4286526208
-0.50031859 -0.97267717 0.12196855 4288282419
-0.30511189 0.39070025 -0.059752449 4294934272
0.82893926 -0.34515679 -0.0037204393 4288282419
0.8286193 -0.30470252 -0.011643833 4288282419
0.07002417 0.33264157 -0.058577925 4288282419
0.050360929 0.33160695 -0.058463339 4288282419
0.8379637 -0.38042638 0.0012154466 4286526208
-0.60368448 -1.0596105 0.15835688 4288282419
-0.37239397 0.3607319 -0.05772448 4294934272
-0.53057235 -0.97707444 0.12542236 4288282419
1.0261081 -0.48952273 -0.022294922 4288282419
0.90492493 -0.94424468 0.068159901 4288282419
-0.83194023 -0.64124715 -0.0039802212 4288282419
-0.16787301 0.29472885 0.11438181 4288282419
-0.75792879 -0.29048407 -0.020257473 4288282419
-0.74835098 -0.095527105 -0.032226689 4288282419
0.71258491 -0.57732689 0.06330359 4294934272
0.12600847 0.21387792 -0.051931188 4288282419
0.68493629 -0.57522923 0.095404871 4294934272
0.81382674 -0.26592529 0.039191123 4288282419
-0.24140881 0.31889662 -0.015579403 4294934272
-0.85006618 -0.70239526 -0.0021617475 4288282419
0.60250223 0.10320554 -0.050096791 4288282419
-0.82143646 -0.40198305 -0.01499889 4294934272
-0.79143959 -0.16557407 -0.02695646 4288282419
0.83162832 -0.33782318 0.04815688 4294934272
-0.18076827 0.29365885 0.016651535 4288282419
0.906151 -0.95527589 0.054081291 4294934272
-0.82757193 -0.22198291 -0.023863034 4288282419
-0.58969766 -0.19968577 -0.026451461 4288282419
-0.21101488 0.29593977 0.064028725 4288282419
0.38924778 0.30501875 -0.059150781 4288282419
-0.079202965 0.31757879 -0.057661362 4294934272
0.83976322 -0.35465065 0.031589098 4294934272
-0.76783085 0.80066293 0.11838584 4294934272
-0.097116038 0.1022834 -0.047623791 4288282419
0.77838129 0.035852626 -0.033257842 4294934272
-0.22498597 0.2849299 0.13852726 4288282419
-0.82930338 -0.61881751 -0.0059286002 4288282419
0.83948773 -0.34519494 0.048050139 4294934272
-0.17127578 0.28600106 0.091068529 4288282419
-0.73181647 -0.23742896 -0.024782285 4288282419
-0.48641643 -1.0588059 0.12722711 4288282419
0.10800173 0.21411744 -0.051931188 4288282419
-0.86698043 -0.42572218 0.039364986 4294934272
-0.31311578 0.016619919 -0.040479746 4294934272
-0.25041038 0.60313898 -0.073686056 4288282419
0.95516771 -0.032422431 -0.044944011 4294934272
-0.067981824 0.19590883 -0.050096791 4288282419
-0.85257596 -0.76445878 0.0027741382 4288282419
0.88255835 -0.3815684 0.082738727 4294934272
-0.13311909 0.18354864 -0.049607631 4288282419
0.78030658 0.0062622796 -0.027414726 4294934272
-0.70931345 -0.34389609 -0.020346571 4288282419
-0.54770613 -0.93795437 0.11980839 4288282419
-0.54799199 0.24706562 -0.049078934 4288282419
0.10867209 0.3334102 -0.058692485 4288282419
-0.75309867 -0.43232024 -0.014371557 4288282419
0.99110907 -0.076114692 -0.042652618 4288282419
-0.80807072 -0.3727046 -0.016710982 4288282419
0.3546299 0.30662662 -0.057890482 4288282419
-0.82574445 -0.0076483227 -0.036163967 4288282419
0.2643764 0.46721298 -0.066476785 4288282419
-0.22328018 0.066384189 -0.045675412 4294934272
0.83949584 -0.4207381 0.0083594648 4294934272
-0.84720707 -0.72594213 0.0008257592 4288282419
-0.2739436 0.038255718 -0.042428125 4288282419
-0.83823454 -0.68480259 -0.00086283789 4288282419
0.89822257 -0.90171474 0.082229264 4288282419
-0.85620755 -0.74512345 0.0001762899 4288282419
-0.28702429 0.40248266 -0.061246753 4294934272
-0.65439922 -1.0069788 0.14926596 4288282419
0.72138309 -0.64510912 0.16405965 4288282419
-0.18290828 0.33890665 -0.041927662 4288256409
-0.43875155 0.33031815 -0.056336936 4288282419
-0.59584808 0.063746542 -0.041277759 4288282419
-0.45905995 -1.0529724 0.12461239 4288282419
-0.03891864 0.21078549 -0.053031817 4288282419
0.26027018 0.11455653 -0.049442265 4288282419
0.6908372 0.19780929 -0.057775922 4288282419
0.38950685 0.087619431 -0.048922703 4288282419
-0.0069289082 0.11121373 -0.046844445 4288282419
-0.68614388 0.84967965 0.068781167 4294934272
-0.28720427 0.2578274 0.09100239 4288282419
-0.86090082 -0.78760767 0.002384451 4288282419
-0.1612709 0.089555845 -0.047623791 4288282419
-0.12910025 0.095448323 -0.047364008 4294934272
-0.85848302 0.75835049 0.11819546 4294934272
-0.28046557 0.29290479 0.037034404 4294934272
0.095286481 0.8549726 -0.084839545 4288282419
0.84998125 -0.26884142 0.053199898 4288282419
-0.021033047 0.21355747 -0.053276397 4288282419
-0.024958286 0.85136968 -0.084930316 4288282419
-0.060546678 0.32082739 -0.057890482 4288282419
-0.16831957 0.18026839 -0.050585981 4288282419
-0.25824085 0.04298884 -0.042298216 4288282419
-0.62691069 -0.23339078 -0.025931897 4288282419
0.60241622 0.23920713 -0.058577925 4288282419
-0.29813439 0.033693682 -0.04346725 4288282419
0.70276058 -0.64185625 0.1532329 4288282419
0.92565686 -1.016819 0.064613424 4294934272
0.22802705 0.47638327 -0.067757599 4288282419
-0.24058636 0.28753126 0.13788557 4288282419
0.69738537 -0.65958339 0.10525794 4294934272
0.7042594 -0.64735729 0.12780964 4288282419
-0.53069675 -0.91352856 0.11132911 4288282419
-0.68609184 0.14360148 -0.044275843 4288282419
0.67237961 0.54241675 -0.074081354 4288282419
-0.13411811 0.62537611 -0.074081354 4288282419
-0.22899303 0.30150589 0.11201287 4288282419
-0.62725729 -0.10678006 -0.032364398 4288282419
0.84823996 -0.27065003 0.072843812 4288282419
-0.5476808 -1.0428252 0.13386528 4288282419
-0.13639919 0.30700672 -0.057203066 4288256409
1.0694304 0.060633551 -0.028327301 4294934272
-0.59927088 0.62923217 -0.068317741 4288282419
-0.83787644 0.67861336 0.043024488 4294934272
0.7740953 0.27743962 -0.057831209 4288282419
-0.80270362 -0.55600357 -0.0073574157 4288282419
-0.35415876 0.37063825 -0.058578357 4294934272
-0.67800665 0.58759123 -0.067137606 4288282419
0.28845826 0.32206628 -0.059036192 4288282419
0.34810477 0.092498556 -0.047623791 4288282419
0.27617112 0.1118049 -0.049312361 4288282419
0.33239681 0.095768422 -0.047623791 4288282419
0.31595352 0.098478198 -0.047493886 4288282419
0.51191688 0.049577229 -0.048922703 4288282419
0.83302701 -0.31027859 0.025173128 4294934272
0.69614661 -0.58366311 0.067979686 4294934272
0.72930402 0.44772547 -0.0024697636 4294934272
0.049736492 0.12576833 -0.049831953 4288282419
-0.42576775 -0.052630685 -0.035803642 4288282419
0.48084292 0.062104214 -0.049312361 4288282419
0.41777617 0.08059974 -0.049052577 4288282419
-0.42060357 0.33974081 -0.056870602 4294934272
-0.79279625 -0.52852118 -0.0087862015 4288282419
-0.48414886 -1.0383048 0.12771629 4288282419
-0.28249055 0.28961736 0.14480047 4288282419
-0.3001945 0.28380281 0.11183953 4288282419
-0.4632403 0.1601896 -0.046662576 4288282419
0.53284383 0.80640411 -0.085021093 4288282419
-0.284098 0.27100438 0.016106857 4294934272
0.031309519 0.33315426 -0.059036192 4288282419
0.73839158 0.39811531 0.0048029749 4294934272
0.1524618 0.33339402 -0.058921631 4288282419
-0.17427887 0.28717983 0.042323679 4294934272
-0.72152001 0.82262844 0.069916457 4294934272
-0.63133472 -1.0316372 0.15348083 4288282419
-0.24079143 0.26727307 -0.053078517 4294934272
-0.72076446 0.78651768 0.037593242 4294934272
-0.098453082 0.31350794 -0.057317656 4294934272
-0.14624946 0.27999401 -0.027304936 4279880729
-0.86002284 -0.062993065 -0.032214753 4288282419
-0.8364535 0.19893894 -0.046510331 4288282419
-0.85033566 0.71725953 0.10952964 4294934272
0.58637351 0.38851738 -0.06466227 4288282419
1.0499622 0.034114812 -0.046837479 4288282419
-0.7939896 -0.33345529 -0.020135168 4288282419
0.9052611 -0.87386125 0.079135858 4294934272
0.25521013 0.21174937 -0.053765588 4288282419
0.71563238 -0.58887208 0.064602502 4294934272
0.048645075 0.6407938 -0.074081354 4288282419
0.010334077 0.21615176 -0.053276397 4288282419
0.27310523 0.20896411 -0.053643283 4288282419
-0.022314299 0.63430828 -0.073488437 4288282419
-0.5317781 0.25917888 -0.049932815 4288282419
-0.66339123 -0.14768094 -0.029918563 4288282419
-0.46796739 -1.0269537 0.12188467 4288282419
0.91405988 -0.94858372 0.065958649 4288282419
-0.8001188 -0.35849348 -0.017322447 4288282419
0.72018391 -0.66603523 0.11433273 4294934272
0.90587336 0.018469865 -0.047235433 4288282419
-0.86045814 0.64913893 0.044815637 4294934272
-0.564888 0.23482867 -0.048331782 4288282419
-0.70902246 0.11454532 -0.041714206 4288282419
1.0426797 -0.50620306 -0.023853641 4288282419
1.0585134 0.056256708 -0.026153242 4294934272
-0.30448648 0.26518464 0.08934892 4288282419
1.0524735 -0.54449439 -0.020996012 4294934272
-0.24629529 0.29873276 0.062316876 4294934272
-0.31246001 0.32162398 -0.04523645 4294934272
-0.74191862 -0.24980555 -0.0244154 4288282419
-0.66037166 0.16781457 -0.045770146 4288282419
-0.23927207 0.049461629 -0.042428125 4288282419
0.69185799 -0.64943016 0.13018134 4288282419
-0.67363143 0.83903021 0.034010947 4294934272
-0.47292554 0.027859122 -0.040313426 4288282419
-0.14612979 0.29314387 0.066484831 4288282419
-0.68153858 0.82782108 -0.037267484 4294934272
-0.54649097 -1.024884 0.13397202 4288282419
-0.7286309 0.80421084 0.0713479 4294934272
-0.23437861 0.30191246 0.087034076 4288282419
0.26336017 0.85804087 -0.086745903 4288282419
-0.67422009 -1.0218817 0.15966842 4288282419
0.21571957 0.85482246 -0.085474998 4288282419
0.60408825 0.78942209 -0.085202672 4288256409
-0.75506222 0.069017671 -0.039472755 4288282419
-0.31214193 0.29025561 0.11068395 4288282419
-0.035493415 0.10637032 -0.046324883 4288282419
-0.29781371 0.79418796 -0.081299148 4288282419
-0.74349219 0.77567846 -0.033694953 4294934272
-0.22074053 0.29603004 0.03910052 4288282419
-0.0082590953 0.33347192 -0.059723638 4288282419
-0.85248315 0.74216545 -0.07246986 4288282419
0.76846361 0.15802903 -0.033388846 4294934272
0.78902435 -0.14405358 -0.038531367 4294934272
-0.71792042 -0.35589474 -0.019956883 4288282419
-0.70208675 -0.19747509 -0.026861263 4288282419
0.91876769 -1.0086039 0.052003033 4294934272
0.037498023 0.12191088 -0.048922703 4288282419
0.68474728 0.84723699 -0.029750278 4294934272
-0.26733837 0.30063879 0.06120047 4294934272
0.20165998 0.11357012 -0.047364008 4288282419
0.87056822 -0.73246247 0.04732693 4294934272
0.020863289 0.11997609 -0.04866292 4288282419
1.0482414 0.81274337 -0.082965754 4288282419
-0.23960899 0.31152681 0.010841656 4294934272
-0.71431059 -0.06599889 -0.032341279 4288282419
-0.2679539 0.29670805 0.086571097 4288282419
-0.8202945 0.68961787 0.042851146 4294934272
-0.71310169 -0.20915312 -0.026616683 4288282419
0.17215025 0.33251408 -0.058921631 4288282419
0.69463247 -0.64749128 0.14219907 4288282419
0.33560812 0.31194606 -0.058348779 4288282419
-0.8461684 0.6704973 -0.026252167 4294934272
-0.72885954 0.83944404 0.10470431 4294934272
0.99247456 0.38766658 -0.014040045 4294928127
-0.2376347 0.058747541 -0.044766162 4288282419
0.98014444 0.37950626 0.018032348 4288282419
0.54565072 0.40304413 -0.064982481 4288282419
0.072631039 0.46916071 -0.064982481 4288282419
0.011685694 0.33110273 -0.058807075 4288282419
-0.70321333 -0.036562409 -0.036236677 4288282419
-0.63981706 0.014186424 -0.03703865 4288282419
-0.32842302 0.01263068 -0.040999308 4288282419
0.97093296 -0.0569584 -0.042881768 4288282419
0.72122532 -0.58450842 0.089905493 4294934272
0.69153154 -0.66040152 0.094085887 4288282419
-0.0078119473 0.21615824 -0.053643283 4288282419
-0.74015319 -0.40515703 -0.016060125 4288282419
-0.15484816 0.18071286 -0.049974516 4288282419
0.4168511 0.84211141 -0.087381355 4288282419
0.38282251 0.83976334 -0.085928902 4288282419
-0.74359429 0.52213031 -0.061600082 4288282419
