# .PCD v0.7 - Point Cloud Data file format
VERSION 0.7
FIELDS x y z rgb
SIZE 4 4 4 4
TYPE F F F U
COUNT 1 1 1 1
WIDTH 768
HEIGHT 1
VIEWPOINT 0 0 0 1 0 0 0
POINTS 768
DATA ascii
1.1516443 1.1516443 0.99686676 4284769280
1.0129488 1.0129488 0 4284769280
0 0 0 4284769280
0 0 1.0272346 4284769280
0 0 0 4284769280
2.107657 2.107657 1.9539379 4284769280
0.94786352 0.94786352 0 4284769280
0 0 0 4284769280
0 0 0 4284769280
0 0 0 4284769280
0 0 1.4870272 4284769280
1.0805 1.0805 1.1468099 4284769280
0.34258935 0.34258935 0 4284769280
0 0 3.8145096 4284769280
0 0 1.1707984 4284769280
1.1453329 1.1453329 0 4284769280
1.7578602 1.7578602 0 4284769280
1.3039858 1.3039858 0.45206508 4284769280
0 0 2.9787798 4284769280
0.24211332 0.24211332 0 4284769280
0 0 0 4284769280
0 0 0.28198743 4284769280
0.89675224 0.89675224 0 4284769280
0.83471537 0.83471537 0 4284769280
0.91435617 0.91435617 0 4284769280
0 0 4.7639599 4284769280
0 0 0.29442075 4284769280
1.5939777 1.5939777 1.1840121 4284769280
0.40854198 0.40854198 3.015501 4284769280
0.051955458 0.051955458 0 4284769280
0 0 1.6469809 4284769280
0 0 0.88763779 4284769280
2.3831158 2.3831158 0 4284769280
0.57712096 0.57712096 0 4284769280
0.24226739 0.24226739 1.750452 4284769280
0 0 0.28848287 4284769280
0.20778304 0.20778304 0 4284769280
0 0 0 4284769280
0 0 0.033056401 4284769280
0.53858805 0.53858805 0 4284769280
0 0 0.67567879 4284769280
0 0 0 4284769280
0 0 0 4284769280
1.4320618 1.4320618 0.21973798 4284769280
0 0 2.4161334 4284769280
0.82927126 0.82927126 0 4284769280
0 0 0 4284769280
0 0 0.4378494 4284769280
0.40279129 0.40279129 0 4284769280
0 0 0 4284769280
0 0 1.5563798 4284769280
0 0 3.0963836 4284769280
0 0 1.2188697 4284769280
1.8882275 1.8882275 1.4964492 4284769280
0.84310079 0.84310079 1.5470409 4284769280
0 0 1.7974384 4284769280
0.083859056 0.083859056 0 4284769280
0 0 0 4284769280
2.3491766 2.3491766 0 4284769280
1.1612411 1.1612411 0 4284769280
0 0 0 4284769280
0.68279332 0.68279332 2.2766953 4284769280
1.4927809 1.4927809 1.8719902 4284769280
0 0 0 4284769280
0.59366477 0.59366477 0 4284769280
0 0 0.98176551 4284769280
0 0 0 4284769280
2.181536 2.181536 0 4284769280
2.3723772 2.3723772 0.63174069 4284769280
0.50209916 0.50209916 1.2159067 4284769280
0 0 0 4284769280
1.3413954 1.3413954 0.42272177 4284769280
0 0 0 4284769280
0 0 1.2637199 4284769280
0.78701675 0.78701675 0 4284769280
0.26619008 0.26619008 1.3330215 4284769280
0 0 1.2938747 4284769280
0 0 0 4284769280
0 0 0.7198863 4284769280
0.71013862 0.71013862 0 4284769280
1.0267508 1.0267508 0 4284769280
0.69819146 0.69819146 0 4284769280
0.68911177 0.68911177 0 4284769280
0.22634807 0.22634807 0 4284769280
0 0 0 4284769280
0 0 0.23755911 4284769280
0 0 0.236789 4284769280
1.6803282 1.6803282 0 4284769280
0.96041393 0.96041393 0.65040702 4284769280
0.99474961 0.99474961 0 4284769280
0.83509076 0.83509076 1.367666 4284769280
0 0 0.82642066 4284769280
0 0 0.26287374 4284769280
0 0 0.95221734 4284769280
0 0 3.348038 4284769280
0 0 0 4284769280
0 0 0 4284769280
0 0 0 4284769280
0 0 0.19720541 4284769280
1.2323685 1.2323685 0 4284769280
1.9066164 1.9066164 0 4284769280
0 0 0 4284769280
0.61676377 0.61676377 0 4284769280
0.31579986 0.31579986 0 4284769280
0 0 1.6691111 4284769280
0.22679561 0.22679561 0.6507144 4284769280
0.75690311 0.75690311 0.18386313 4284769280
0.50361383 0.50361383 0 4284769280
0 0 0 4284769280
2.201201 2.201201 0.18027735 4284769280
0 0 0 4284769280
0 0 0 4284769280
0 0 0 4284769280
0 0 2.4854493 4284769280
0 0 3.6255753 4284769280
0 0 0 4284769280
1.2885388 1.2885388 0 4284769280
0 0 0 4284769280
0 0 2.2597172 4284769280
0 0 0 4284769280
0 0 0 4284769280
0.36455774 0.36455774 0.96731514 4284769280
0 0 0 4284769280
0.95564198 0.95564198 0 4284769280
0 0 0.96099985 4284769280
1.1615956 1.1615956 0 4284769280
0 0 0.77883315 4284769280
0 0 0.36640728 4284769280
0 0.9918555 0 4278190335
0.52818382 0 0 4278190335
0.37270835 0 0 4278190335
0 0 0 4278190335
0.18477745 0 0 4278190335
0 0 0.74814922 4278190335
0.4998779 0 0.045827258 4278190335
0 2.4659917 0 4278190335
0 0 0 4278190335
0 2.2104318 0 4278190335
0 0 1.6945285 4278190335
1.3395276 0 0 4278190335
0 0 0 4278190335
0 0 0 4278190335
0.79167587 1.4185816 1.4675002 4278190335
0 0 1.2913568 4278190335
0 0 1.6982372 4278190335
0 0 0 4278190335
0.56947595 0 0 4278190335
0.55252308 0 0 4278190335
0.69766527 0 0.73996407 4278190335
1.3332692 0.67620575 0 4278190335
0.6366002 0 0.28958616 4278190335
0.87061059 1.4766783 1.3940326 4278190335
0.62586236 0 0 4278190335
0 0.55318463 0 4278190335
0 2.3601308 0 4278190335
0.2812877 0 0 4278190335
0 0 1.7659988 4278190335
0 2.3426542 0 4278190335
0 0.67590278 0 4278190335
0 1.9622484 0 4278190335
1.4882051 1.4644227 0 4278190335
1.9771662 1.5173645 0.1192868 4278190335
0 0.33565664 0 4278190335
0 1.3449467 1.5146699 4278190335
0.96031392 0 0 4278190335
0 0 1.5554979 4278190335
0.049183279 1.3545781 0 4278190335
0.1674415 0 0 4278190335
2.0106816 0 0 4278190335
0.1640012 0.16929172 0 4278190335
0 0 0 4278190335
0 0 0.34818873 4278190335
1.1629043 0.24573427 0.52787203 4278190335
0 0 0 4278190335
0 0 0.039516374 4278190335
0.058280975 0 1.3919842 4278190335
0.28620058 0.5168463 0 4278190335
0.20613506 0 0.94400311 4278190335
0 2.1546488 0.74949312 4278190335
0 0 0.29214242 4278190335
0 0 0 4278190335
0 0 2.1558142 4278190335
0.67915702 0 0.81523275 4278190335
0.40407228 0 2.9265976 4278190335
0 0 0 4278190335
0 0.28164843 1.3864899 4278190335
0.5835765 0 0 4278190335
0 0 0 4278190335
0.40006733 0 2.6791785 4278190335
2.4221888 0 0 4278190335
0 0.6860401 0.13754436 4278190335
2.5219543 0 0 4278190335
0 2.4871864 0.6275152 4278190335
0 1.0495188 0 4278190335
1.5755268 0 0.39459234 4278190335
0.52514851 0 0.76741904 4278190335
1.2310554 2.2361574 0.28427655 4278190335
0 0 0 4278190335
0 1.9114351 2.4718528 4278190335
1.0875169 0 0 4278190335
0 0 0 4278190335
0 0.1250833 0.88116378 4278190335
0.43094492 1.3761487 0 4278190335
0 0 1.9163181 4278190335
0 0.5591222 0.071147636 4278190335
0 0 1.0305048 4278190335
0.51580471 0 0 4278190335
0 0.12703146 0.72582978 4278190335
0.14127164 1.7364322 0 4278190335
0 0.90475535 0 4278190335
0.086494491 0.79736865 1.3355267 4278190335
0.70082092 0 0 4278190335
0 0 2.4256082 4278190335
0.84646297 2.3136005 0.22965305 4278190335
2.3360598 0 2.4620719 4278190335
1.219367 0 0.79382563 4278190335
0.26288339 3.172627 1.4876144 4278190335
0 2.0346603 2.6907113 4278190335
1.1247523 0 0.47537047 4278190335
0.28323254 0 1.0176806 4278190335
0 0 0.89922321 4278190335
0 0 0 4278190335
1.1363217 1.9482105 0.47858843 4278190335
0 0 2.1542253 4278190335
0 0 0.86081511 4278190335
0 1.4899188 1.4772482 4278190335
0 0 0.73998833 4278190335
0 0 0.076825894 4278190335
1.0096345 0 0 4278190335
1.3143803 0 0 4278190335
0 0 0.31129709 4278190335
0.39358732 0 0.098767303 4278190335
0 0.38359541 0.83768749 4278190335
0.86396551 1.1826344 0 4278190335
0 0.030148368 0 4278190335
0 2.5577953 0 4278190335
0 0 0.14737979 4278190335
0.84599966 0 0.030782426 4278190335
0 0.24138302 0.84398663 4278190335
0.61266059 0 0 4278190335
0 0 0.44948035 4278190335
0 0 0 4278190335
0.97496384 0 0.77243596 4278190335
0 0 2.6149244 4278190335
0 2.2171729 0 4278190335
0 0 0 4278190335
0.65680963 0 0 4278190335
0 0 0 4278190335
0.9675765 0 0.51014572 4278190335
0 0 0.77052921 4278190335
0 2.6648238 0 4278190335
0 0 0.38821021 4278190335
0.66987991 0 0 4278190335
0 0 0.87788278 4278190335
0.99230844 0 0.18515222 4278190335
1.1718624 1.6790551 0.95740294 4278190335
0 1.0162536 0.046137612 4278255360
1.8325598 0 0.83813202 4278255360
0 0.3479344 0 4278255360
0 0 0.97321826 4278255360
0.35426787 0 0 4278255360
0 0 0 4278255360
1.0524228 0 0.52125585 4278255360
0.1747158 0 0 4278255360
0 0.14860825 0 4278255360
0 0.76395893 0.27739528 4278255360
0.72387427 1.533304 0 4278255360
0 0 0 4278255360
0 0 0 4278255360
0.42252824 1.2750974 0 4278255360
0 1.1478209 0 4278255360
1.6583591 0 0.44599375 4278255360
0.021396546 0 0.4292087 4278255360
0.41021112 0 0 4278255360
2.0446348 1.6668502 0 4278255360
2.6788681 0.16233279 0 4278255360
0 0 0.12690246 4278255360
0.31731001 0 0 4278255360
1.5369574 0 0 4278255360
0 0.60898608 0 4278255360
1.5329132 0 0 4278255360
0.7570864 0 0 4278255360
0 0 0 4278255360
0 0 0 4278255360
0.57735533 0 0 4278255360
0 0 0.66118348 4278255360
0 0 0 4278255360
0 0 0.34039065 4278255360
1.4806161 1.6589309 0.35139683 4278255360
1.0479171 0.58607948 0 4278255360
0 0.4366062 0.93486083 4278255360
0.14011307 0 0 4278255360
1.6135108 0.67109668 0.16450989 4278255360
0 0 1.5321366 4278255360
1.0310982 0.16115655 0 4278255360
0 0 0 4278255360
1.9279467 0 0.079408109 4278255360
0 2.5235288 0 4278255360
0 1.6138793 0 4278255360
0 1.3599445 0 4278255360
0 0.370893 0 4278255360
0 1.028855 0 4278255360
1.7855076 0 0 4278255360
0 0.35291448 0 4278255360
0.89786232 2.3656962 1.8303285 4278255360
0 0.58080262 0 4278255360
0 0.76174337 0 4278255360
0 0 1.2599382 4278255360
1.3818327 0 2.3721421 4278255360
0 0 0 4278255360
0 0 0.79789466 4278255360
0 0 1.8613518 4278255360
0.082154945 0.77749157 0 4278255360
0 0 0 4278255360
0 0.37317485 0 4278255360
0.023997903 0 0.27152088 4278255360
0.25698793 0 0.25034159 4278255360
0 0 0.54474556 4278255360
0 0 1.3137285 4278255360
0.21230273 0 0 4278255360
0 2.4822159 0.99993861 4278255360
0 2.2583702 0.40271473 4278255360
1.8302821 0.22935101 0 4278255360
0.46309948 0 0 4278255360
0 0 1.1058177 4278255360
0.81204623 1.0204039 0 4278255360
0 0.33156067 0 4278255360
0 0.5379222 0.65528345 4278255360
0.11383469 0.28134644 1.3535377 4278255360
0 0 0.95379788 4278255360
0 0 0 4278255360
0 0.29279286 0.62121761 4278255360
0 0.0030017025 0 4278255360
0 0.25724784 0.25018439 4278255360
0 0 0 4278255360
1.9053875 0 0 4278255360
0 0 0.19251265 4278255360
0 0.24241887 0 4278255360
0.27921811 0 0.79932582 4278255360
1.7274774 2.215158 0 4278255360
0 1.8007983 0.30806857 4278255360
0 0 1.1477195 4278255360
1.085664 0 0 4278255360
0 1.0333945 0 4278255360
0.82173967 0 0.94596171 4278255360
0 2.0949755 0 4278255360
0.98859191 0 0.56440455 4278255360
0 0.4914355 0 4278255360
0.59294373 0 0.58413661 4278255360
1.5691905 0 0.94965357 4278255360
1.1161211 0 0.67055339 4278255360
1.0715157 1.7168413 0 4278255360
0 0.19268805 0.39136916 4278255360
2.1202145 0.61587256 0 4278255360
0 0.90416336 1.2362492 4278255360
0.25254568 0 0.8981868 4278255360
0 0.97648954 0 4278255360
0.21664196 0.97662997 0 4278255360
0.76085281 0.16802481 0 4278255360
0.8344214 0 0.28573152 4278255360
1.2736806 0 0 4278255360
0 0 1.5282409 4278255360
0 0.52343577 0 4278255360
0.5084002 0 1.1838573 4278255360
0 0 0.46683392 4278255360
0.94438642 0 1.8681123 4278255360
0 0.90855432 1.1556704 4278255360
0 0.98155338 0 4278255360
0 0.30508235 1.5684503 4278255360
1.0851506 0 0 4278255360
2.5408921 0.15300366 0 4278255360
0 0 0.10999893 4278255360
0.82717359 0 0.18913046 4278255360
2.5355394 0 0 4278255360
1.7372655 2.2262437 0 4278255360
0 0.7558943 0.069529399 4278255360
0.2452714 0 0 4278255360
0.42036501 0 0 4278255360
0.020952938 0 0 4278255360
0 1.3474894 0 4278255360
0 0 0.38935852 4278255360
1.4151218 0 0 4278255360
0 1.6018161 0.52460617 4278255360
0.79057628 0 0 4278255360
0.22282854 0.93502373 0.53937507 4278255360
2.40731 2.273154 0 4278255360
0 0 0 4278255360
0 1.0345602 0 4278255360
1.580573 1.6192476 0 4278255360
0 0.65755361 0.063816018 4278255360
0 0 0.48078626 4278255360
0 0.40763131 0.52111971 4278255360
0 1.1660968 0.85732299 4278255360
1.4109626 1.2532287 0 4278255360
0 0 0 4278255360
0 0 0 4278255360
0 0 1.2097312 4278255360
0.48333532 0 0.516123 4278255360
1.8253731 0.89261496 0 4278255360
0 0.11061491 1.0292166 4278255360
1.1035955 1.1140472 0.74352455 4278255360
0 0 0.97909743 4278255360
0 0.19042128 0.28091896 4278255360
1.4600298 0.39260346 0 4278255360
1.4664515 0 0.36919171 4278255360
0 2.5462954 0.21065688 4278255360
0.071096011 0.49378064 0.6878261 4278255360
0.56146574 0.51379412 1.2309691 4278255360
0.077276886 0.27373293 0.47465807 4278255360
0 0 0.98957282 4278255360
1.5691948 2.6154532 0 4278255360
0 0 0.074427135 4278255360
0 0 0 4278255360
1.8620501 0.55174625 0 4278255360
0 0 0.91381586 4278255360
1.6939634 0 0.76541841 4278255360
0.59843773 0 0.52191889 4278255360
0.4616189 0 1.1282542 4278255360
1.9126568 1.0155966 0.22273998 4278255360
0 0 0 4278255360
0 0 0.47942775 4278255360
0 1.6608009 0 4278255360
0.12262381 0 0 4278255360
0 0.51581502 0.62771529 4278255360
0 0.55476117 0 4278255360
0 0 0 4278255360
2.2477903 0.44179323 1.0356985 4278255360
1.0654633 0 0 4278255360
0 0 0 4278255360
0.26134518 0.26980823 0.77300876 4278255360
0 0 0 4278255360
0.63574916 0.60665005 0.60802799 4278255360
0 0 0.92216003 4278255360
0.51787329 1.2216605 0 4278255360
0 0.50909287 0 4278255360
1.885296 0 0.31222159 4278255360
0 0 0 4278255360
0.19119072 0.26946074 0 4278255360
0 0 0.8763082 4278255360
0 0.9523384 0.81707889 4278255360
0.86207634 0 0 4278255360
1.1625241 1.8231792 0 4278255360
0 0.67545182 0.76741368 4278255360
0 0 0 4278255360
0.0093110958 0 0.35133228 4278255360
1.0413314 1.431196 0.88441014 4278255360
0.69677305 1.5665907 1.1334943 4278255360
0 0 0.60140502 4278255360
0.22376579 0.61035019 0 4278255360
0.3814151 0.58752567 0 4278255360
0 0.24532849 0.061540592 4278255360
0.75906962 1.8362556 0.68731165 4278255360
0 0 0.15917939 4278255360
0.72249895 2.4041026 0 4278255360
0 0 1.3638021 4278255360
0 1.2541225 0.41392404 4278255360
0 0 0.51583749 4278255360
0 0.46288207 0 4278255360
0.35005501 1.632322 0 4278255360
0 0.74198091 0.82168728 4278255360
1.937233 0 0 4278255360
1.4110994 0.60702658 0.3471255 4278255360
0.93800551 0 0 4278255360
2.9214571 0 0 4278255360
0 1.6014075 0 4278255360
0 0 0.45981961 4278255360
0 1.2158034 0.63241208 4278255360
1.8100852 1.2819636 0 4278255360
0.69026279 0 0 4278255360
2.64224 0 0 4278255360
0 2.1947527 0.42437097 4278255360
1.7960796 1.1551596 0 4278255360
0 0.47160763 0 4278255360
0 0.55538774 0 4278255360
0.94486231 0 0 4278255360
0 2.0630987 0.27901712 4278255360
1.0642091 0 0 4278255360
0 0 0 4278255360
1.1768394 0 0 4278255360
0.33092356 0 0 4278255360
1.9562217 0.24831228 0.11301895 4278255360
0 0.0098671867 0.30300894 4278255360
2.0244639 0 0.61612409 4278255360
0 0.010518414 0 4278255360
0.93785405 1.9725788 0 4278255360
0 0.19230181 0 4278255360
0 0 0.43707606 4278255360
0 0.16910288 0 4278255360
0 0 0.81522077 4278255360
2.4459836 0 0 4278255360
0 0.16497543 1.4585836 4278255360
0 0 1.2599076 4278255360
1.1970886 0 0 4278255360
1.9498242 0 1.4427919 4278255360
0.72268546 0.97544903 0 4278255360
0.53451002 0 0 4278255360
0 0 0.94901383 4278255360
0 2.4257221 0.4568091 4278255360
0.48402989 0 0 4278255360
1.1221508 0.049281791 0.63394237 4278255360
1.065574 1.099561 0 4278255360
1.2604905 0.87085181 0.71528608 4278255360
0.035902865 1.8803166 0 4278255360
0.036854599 0 1.3372331 4278255360
0.7619893 1.402439 1.8786695 4278255360
0 0.043444436 0.33418906 4278255360
0.46426192 0.59671724 0 4278255360
0 0.70646679 0.59589541 4278255360
0.19785859 0 0 4278255360
0 0.83499271 0.72922248 4278255360
0 0.13896398 1.5813696 4278255360
0 0.51396704 0 4278255360
0.055002589 0 0 4294901760
0.86946923 0 0 4294901760
0 0.98205471 0 4294901760
0.74986976 2.2688334 0 4294901760
0.32657102 0 0 4294901760
1.3546609 0.19576539 0 4294901760
0 0.96483958 0.54116565 4294901760
0 1.3001103 0 4294901760
0 1.1161793 0 4294901760
0.60236824 0.90472114 0.51682007 4294901760
0 0 0.59996986 4294901760
0 0 1.4057999 4294901760
0 0 2.546473 4294901760
0 0.38270569 1.454609 4294901760
0.20776843 0 1.4276778 4294901760
0.19878203 1.3257586 0 4294901760
0 0 1.3919145 4294901760
0 1.8476456 0 4294901760
0.81555235 0 0 4294901760
0.6945954 0.063896805 0 4294901760
0 0 2.3350508 4294901760
0.38089263 0 1.1817908 4294901760
0 0 2.2020195 4294901760
0 1.8551344 0.62668252 4294901760
1.2332754 1.4880091 0 4294901760
0.30811402 1.4586759 0 4294901760
0 0 1.6875755 4294901760
0 1.1495465 0.0030991731 4294901760
0 0.48476979 0.84809178 4294901760
0 1.03102 1.3989655 4294901760
0 0 1.1918674 4294901760
1.1544538 0 0.92552888 4294901760
0.23386663 0.41184565 0 4294901760
0.87260628 0 0.023106549 4294901760
0.55322689 0 0.1290379 4294901760
1.2764839 0.18453757 1.1123447 4294901760
0 0.97585464 2.2351034 4294901760
0.88961303 0 0 4294901760
0.12979032 0 0 4294901760
0 0.32906482 0.67061782 4294901760
0.42715338 1.3647063 0 4294901760
0 0 2.4414668 4294901760
0.49125841 2.268013 0 4294901760
0 1.1742895 0 4294901760
0.041428853 0 1.3339841 4294901760
0 0 0.90287703 4294901760
1.7251453 0 1.3653115 4294901760
0.13972266 1.0648487 0 4294901760
0 0.65309054 0 4294901760
0 0 2.0600562 4294901760
1.1741314 0 0.39690548 4294901760
0 0.61133391 2.0946369 4294901760
0.28964114 0.41232631 0 4294901760
0.75766402 0.18339419 0 4294901760
0 2.4542694 0 4294901760
0 0.57390374 1.4563565 4294901760
0.10942984 1.5965673 1.031191 4294901760
0 0 1.3965615 4294901760
1.7838722 0 0.59705913 4294901760
0 0.31165871 1.4902205 4294901760
0.58535838 1.9361191 0 4294901760
0.93340462 0 0 4294901760
0.85399336 0 2.4341257 4294901760
0.44307026 0.88145834 0 4294901760
0 1.4559839 0 4294901760
0 0 1.0891833 4294901760
0 0.68717903 1.0796148 4294901760
0 0.70655781 1.5790157 4294901760
0 0 1.1130463 4294901760
0.77853841 0 1.6312995 4294901760
0.45720679 0 0.75873077 4294901760
0 1.1389445 1.9876313 4294901760
0 0.6125198 0 4294901760
0 2.1359594 0 4294901760
0.49414697 0 0 4294901760
0 0.58336407 0 4294901760
0 0.56014043 0 4294901760
0 1.1001937 1.782699 4294901760
0.30310309 2.325794 0.53657079 4294901760
0 0 1.4204857 4294901760
1.2535939 0.85759354 0 4294901760
0 1.4549588 2.0475399 4294901760
0.0023539816 0.32677755 0 4294901760
0 1.3484758 1.4869524 4294901760
0 1.1862125 0 4294901760
0.52395922 1.4101081 0 4294901760
0.29545519 0.35658196 0 4294901760
0.45244652 0.2117341 1.6962963 4294901760
0 0.55025023 2.019634 4294901760
0 1.4133737 0.86341035 4294901760
0 0 0.79785371 4294901760
1.2383337 0 0.41052419 4294901760
1.4458835 0 0.36075586 4294901760
0 0 0.03571593 4294901760
0 0 0 4294901760
0 0 0 4294901760
1.409225 0 1.307779 4294901760
0 0 0 4294901760
0 0.7550118 2.067214 4294901760
0.4309614 0 1.8930426 4294901760
0 0.13700311 0.52341974 4294901760
0 0 0.18186542 4294901760
0.73133075 1.4512547 0 4294901760
0 0 0.68618792 4294901760
0 0 0 4294901760
0 0.081626721 2.2445385 4294901760
1.4013091 0 0 4294901760
0.65767246 0 1.8675718 4294901760
0 0.8954168 0 4294901760
0.099305972 0 0 4294901760
0 0 2.2431588 4294901760
1.2450777 0 0 4294901760
0 0 1.4179375 4294901760
1.0283648 0.63244635 0.85654157 4294901760
0 0 0 4294901760
0 0.092360131 2.3240411 4294901760
0 0 1.5002047 4294901760
0.47958571 0.6033622 2.6292949 4294901760
1.6293764 0 0 4294901760
0 0.080180146 0 4294901760
0 0 1.6709992 4294901760
0.63804871 0 0 4294901760
1.2328885 1.3032032 0 4294901760
0.098364912 0.84524268 0 4294901760
1.4176873 0 0 4294901760
0.87989008 2.1442821 0 4294901760
0.087668709 0 0.095076345 4294901760
0 0.54264063 1.7167009 4294901760
0.38345101 0 0 4294901760
0.66553938 1.7495341 0 4294901760
0 0.49681741 0 4294901760
0 0 1.3484837 4294901760
1.0629991 0.12452747 0 4294901760
0 0.78302294 0 4294901760
0 1.8433479 0.078328811 4294901760
0 0 0 4294901760
0.62091184 0 0.39349979 4294901760
0 0.062857397 0 4294901760
0.38214007 0 0 4294901760
0 0 2.0937922 4294901760
0 0.24585466 1.3612833 4294901760
0 0.20687085 1.9582192 4294901760
0.24188867 0 0.50051826 4294901760
0.49550921 0 0 4294901760
0.23933753 0 0.19195315 4294901760
0 1.5465248 0 4294901760
1.3673955 1.6534109 0.73919612 4294901760
0 0.29025793 0 4294901760
0 0 0.73253435 4294901760
0.99494576 0 1.5525215 4294901760
0 1.230793 2.0489037 4294901760
0.01594327 0 0.5211522 4294901760
0.45737368 0 0.022384217 4294901760
0.87238401 0.40808663 0.111097 4294901760
0 1.1206555 0.48182571 4294901760
0 0.13925977 0.80825824 4294901760
0.04942954 0.83122307 0 4294901760
0 0.065967306 0.31326991 4294901760
0 0.67160147 0 4294901760
0 0.65637904 1.4284608 4294901760
0 1.0192052 0 4294901760
0.25088623 0.21853739 0 4294901760
0.4847486 1.235761 0 4294901760
0 0.78715318 0 4294901760
1.1811379 0 0.39215985 4294901760
0.99448293 0.8279267 0 4294901760
0 0.33476293 0.19296111 4294901760
0.56920427 0.75529838 0 4294901760
0 0 2.4935725 4294901760
0 0 1.1721318 4294901760
0.87464547 0 0 4294901760
0.41180256 0 0 4294901760
1.1467003 0 0 4294901760
0 1.2445769 0 4294901760
0 0.50058812 1.2289882 4294901760
0.66948551 0 0.23284774 4294901760
0.50814873 0 0.12659749 4294901760
0 0 1.1879168 4294901760
0.51222944 0 1.1218594 4294901760
0.42998216 0.97417474 0 4294901760
1.0699428 1.7234355 0 4294901760
0.2073427 0.76242787 0 4294901760
0 0.75395644 1.9038308 4294901760
0 0.5181222 1.3358641 4294901760
0.037077125 0 0 4294901760
0 0.88105822 0 4294901760
0 0 0 4294901760
0 0 2.0826063 4294901760
0 0 0.5698173 4294901760
0 0 1.8065728 4294901760
0.30075133 0 1.4119575 4294901760
0.50836283 0 0 4294901760
0 0 1.9244148 4294901760
1.1123688 0 0 4294901760
0 0 1.4824239 4294901760
0 0.87371588 1.48044 4294901760
0 0 0.50780511 4294901760
0 0.0010996736 0.08185526 4294901760
1.303686 0 0 4294901760
0.067625731 0.79285139 2.435307 4294901760
0 2.6793785 0 4294901760
0.94897014 0.25814068 0 4294901760
0 1.4940107 1.7737418 4294901760
0.62757748 0 0.59432817 4294901760
0 0 1.077878 4294901760
0 0 2.1197703 4294901760
0 0.51704568 2.257771 4294901760
1.2200885 0.87762886 0 4294901760
0 0 1.4765929 4294901760
0 0 0 4294901760
0 1.8429984 0 4294901760
0 0 1.9150562 4294901760
0.53203493 1.7475919 0 4294901760
0 0 0 4294901760
0.68361443 0.62381464 0 4294901760
0 0 2.494137 4294901760
0.88417941 0 0 4294901760
0 1.6362516 0 4294901760
0 0.19199282 0 4294901760
0.25216755 0 0 4294901760
0 1.2048974 1.7003236 4294901760
0 0.036213405 2.6360855 4294901760
0 0.93892747 1.2567109 4294901760
0.89107043 0 0 4294901760
1.5616504 0 0 4294901760
0 0 0 4294901760
0.76643354 0 1.9799063 4294901760
0.065755062 0 0 4294901760
0 2.7493544 0 4294901760
0.99825853 0 0 4294901760
0.15524054 0 0.18946096 4294901760
0 0.24738719 0 4294901760
0 1.9221832 0 4294901760
0 0.81860781 1.7211577 4294901760
0 0.9798063 0.16159785 4294901760
0.44542706 0 0 4294901760
0 0.19622056 1.8785908 4294901760
0.5244844 0 0 4294901760
0 1.9272296 0 4294901760
0.20051956 0 1.79579 4294901760
0 0.23078056 1.4642767 4294901760
0 0 1.1478615 4294901760
0.10321316 0 1.8542649 4294901760
0 1.9459916 0 4294901760
0 2.0043304 0 4294901760
0.410835 0 1.043214 4294901760
0 0 0 4294901760
0 0 1.7948668 4294901760
1.6577871 0 1.0043229 4294901760
0 0.41193491 0.9496218 4294901760
0 1.4715642 0 4294901760
1.3075981 0 0 4294901760
0 1.525978 0 4294901760
0.47445586 0.056031216 0 4294901760
0.20593405 0.71162522 2.4262507 4294901760
0.54687506 0.33561853 0 4294901760
