# .PCD v0.7 - Point Cloud Data file format
VERSION 0.7
FIELDS x y z rgb
SIZE 4 4 4 4
TYPE F F F U
COUNT 1 1 1 1
WIDTH 768
HEIGHT 1
VIEWPOINT 0 0 0 1 0 0 0
POINTS 768
DATA ascii
0 0 3.0000288 4284769280
0 0 0 4284769280
0.1264904 0.068736359 0 4284769280
0 0 0 4284769280
0.00058083807 0 0 4284769280
0 0 0.18761452 4284769280
0 0 0 4284769280
0 0 1.2024639 4284769280
0.82728684 0.95060986 0.74187416 4284769280
0 0 0 4284769280
0 0 0 4284769280
1.4438336 1.7496437 2.9135201 4284769280
1.4135294 1.4140308 0 4284769280
0.63694406 0.64112735 0 4284769280
0.81189954 0.85236365 0 4284769280
0 0 0 4284769280
1.3924571 1.5311612 0.047724873 4284769280
0 0 0 4284769280
3.0432384 3.2582498 1.9744644 4284769280
1.6107721 1.6859301 0.8166737 4284769280
0.80204904 0.76764923 0.57467222 4284769280
0 0 0 4284769280
0.23945948 0.23206876 0 4284769280
0.48753139 0.24487211 0 4284769280
0 0 1.3376583 4284769280
0 0 0 4284769280
0.82244861 0.84527737 1.3394953 4284769280
0.046171576 0 0 4284769280
0.33545622 0.25109261 1.8316057 4284769280
0 0 1.9482634 4284769280
0 0 0.96157318 4284769280
0 0 0 4284769280
0.41441584 0.25424072 1.2221473 4284769280
0 0 0 4284769280
0.66441393 0.78211224 0 4284769280
0 0 0 4284769280
0.63458705 0.93833977 1.737973 4284769280
0 0 1.1973405 4284769280
0 0 1.8116567 4284769280
0.098543882 0.050828032 1.2401521 4284769280
0 0 0.16957276 4284769280
0.34061083 0.19075441 0 4284769280
0 0 0 4284769280
1.9136925 2.1333489 1.2710515 4284769280
0.94415253 1.2991846 0 4284769280
0 0 0.34878698 4284769280
0 0 0 4284769280
0.19920532 0.25967926 0 4284769280
0 0 0 4284769280
0.24616729 0.38147405 1.5889935 4284769280
1.0214313 1.0489396 0.14862166 4284769280
0 0 2.8661146 4284769280
0 0 1.1140008 4284769280
0 0 2.7353761 4284769280
0.27678528 0.17874818 1.0880008 4284769280
0 0 0 4284769280
0 0 0.053252924 4284769280
0 0 0.83836097 4284769280
0 0 0.017783791 4284769280
0.95314622 0.9401561 0 4284769280
0 0 0.73844719 4284769280
0 0 0 4284769280
1.2052665 1.1112152 1.4268087 4284769280
0 0 0 4284769280
1.4150107 1.7921311 0.8164736 4284769280
1.1063595 0.97158414 0 4284769280
1.0628318 1.0109366 0 4284769280
0.65507704 0.67490447 2.5180488 4284769280
1.3109925 1.5453639 0 4284769280
0 0 0 4284769280
1.6137241 2.0225718 0.35748997 4284769280
1.2328697 1.2371132 0 4284769280
0.38471729 0.38147935 1.2448213 4284769280
0 0 0 4284769280
0.20571253 0.078255899 0 4284769280
0 0 0 4284769280
0 0 0.50393939 4284769280
0 0 0 4284769280
0 0 2.4300568 4284769280
0 0 0 4284769280
0 0 0 4284769280
0 0 0.049286343 4284769280
0 0 0 4284769280
0 0.18639445 0 4284769280
0.97138315 0.94786924 0 4284769280
0 0 2.8095574 4284769280
0 0 0.10813846 4284769280
0.45877424 0.2875002 0 4284769280
0.43219858 0.18959336 1.0824486 4284769280
0 0 0 4284769280
0 0 0.64135873 4284769280
0 0 0 4284769280
0.3040221 0.004022588 0.098327875 4284769280
1.464072 1.4295982 0 4284769280
0.36172932 0.57156825 2.3462024 4284769280
1.089484 1.0848953 0.21176265 4284769280
0 0 0.21935675 4284769280
0.95418596 0.93920648 2.053534 4284769280
0.87354368 0.70063668 0.13724379 4284769280
1.0251431 1.1891569 2.7978091 4284769280
0.70926005 0.47591275 0 4284769280
0 0 0 4284769280
0 0 0 4284769280
0 0 0 4284769280
0 0 0 4284769280
0 0 0.34774238 4284769280
0 0 0.4939568 4284769280
0 0 1.1023854 4284769280
0 0 0 4284769280
0 0 0 4284769280
0 0 1.5545207 4284769280
0 0 0 4284769280
0 0 0 4284769280
0 0 0 4284769280
0 0 0 4284769280
0 0 3.4743876 4284769280
0 0 2.0237615 4284769280
0 0 0 4284769280
0.36321396 0.43005079 0.25064167 4284769280
2.3326485 2.3327994 3.6879697 4284769280
0 0 0.032038819 4284769280
0 0 0 4284769280
0.24439678 0.2074482 1.775552 4284769280
1.0553027 1.0426334 0.70635015 4284769280
0.91409755 0.93572032 0 4284769280
0.33630291 0.26425973 0.039275479 4284769280
0.3847093 0.27955458 1.0052686 4284769280
0 0 0 4284769280
0.84211439 0 1.3769102 4278190335
0 0 2.1427109 4278190335
0 1.4513764 0.45173588 4278190335
0 0 1.751241 4278190335
0 1.5728074 0.023706814 4278190335
1.0253028 0 0.2154402 4278190335
0 0 0 4278190335
0.7095688 1.0151554 1.1012038 4278190335
1.3418772 0 0 4278190335
0.42315987 1.1896335 0 4278190335
1.4711612 0 0 4278190335
0.92204553 0 0 4278190335
0 0 0 4278190335
0.63059884 0 0 4278190335
0.7559014 0.93087077 0 4278190335
0 0.51257312 0.30725682 4278190335
0.83068794 0.18369877 0.5951156 4278190335
0 0 0 4278190335
0 0.060645688 0 4278190335
0 1.4036475 2.0553758 4278190335
0.5641014 0 0 4278190335
0 1.1203852 0 4278190335
0 1.3611211 0.44234723 4278190335
0 1.5812892 0 4278190335
0 0 0 4278190335
0 0 0.75632548 4278190335
0 2.9504089 0.76667047 4278190335
0.013022365 0.99643838 0 4278190335
0 0.99396217 0 4278190335
0 0 0 4278190335
0 0.68421823 1.1394515 4278190335
0.21307485 0.10993686 0 4278190335
0 1.1905394 1.3540409 4278190335
0 1.6514994 1.5204901 4278190335
0.66712338 0 1.5441134 4278190335
0.51542735 0 0 4278190335
0.56968939 0 2.9883103 4278190335
0.66345483 0 0 4278190335
0 2.3342376 0 4278190335
0 0.30406356 0 4278190335
0 0.50804859 1.2490948 4278190335
0.31280661 0 0.9957307 4278190335
0 0 1.4827404 4278190335
0 0 1.1498202 4278190335
0 0 1.3026043 4278190335
0 0.81323516 0 4278190335
0 1.6261448 0.045358576 4278190335
0 0 0.36939207 4278190335
0 1.4427924 0.81343263 4278190335
0 1.1504834 0 4278190335
0 1.4573747 0 4278190335
0.89357477 0 1.8045731 4278190335
0 0 1.3170539 4278190335
1.3413199 0 0 4278190335
0 2.7302227 0.2396621 4278190335
0.4527851 0.44354358 0 4278190335
0.74848938 1.038929 0 4278190335
0 2.6155605 0.083488517 4278190335
1.3615352 1.1625453 1.0734663 4278190335
0.81208384 1.7867411 0 4278190335
0 1.4978102 2.7510881 4278190335
0 1.869683 0.40969095 4278190335
0.16568285 0 2.1824925 4278190335
0 0 0.67089534 4278190335
0 0.80553639 0 4278190335
0.10815439 1.4186594 0.088539988 4278190335
1.5769008 0.0089017637 0 4278190335
0 1.4401749 0 4278190335
0.02182889 0 1.0955235 4278190335
0.13429366 0 0 4278190335
0 1.4700614 0.46766222 4278190335
0.63495398 0 0 4278190335
0 1.9044746 0.99143839 4278190335
0 0.38264877 0.08969409 4278190335
0.18771134 3.328259 0.36954093 4278190335
0 0.42935288 1.6911985 4278190335
0 0 0.10072903 4278190335
0 0.83610839 0 4278190335
1.1718587 2.3520262 0 4278190335
0 1.5295211 0 4278190335
0.026757846 0.48854885 0 4278190335
0 0.28033394 0 4278190335
0 0.10022166 1.0492364 4278190335
1.2918346 0 0.39425978 4278190335
1.4177521 0 0 4278190335
0 0 1.1507335 4278190335
0 0 0.98967445 4278190335
0 0 0.087377027 4278190335
0.38693008 1.027125 1.1533827 4278190335
1.1223545 0 1.5439109 4278190335
1.8926119 0 0 4278190335
0 1.5304682 0 4278190335
0 0 0.73974478 4278190335
0 1.1226213 0.7037583 4278190335
0 0 0.70780742 4278190335
1.1007937 0 0 4278190335
0 0 0 4278190335
0.38526466 0 1.3495597 4278190335
0.64596933 1.0675393 0 4278190335
0 2.2269349 0 4278190335
0.5300163 0 2.0473144 4278190335
0 0.30761656 0 4278190335
0.27485317 0 0 4278190335
0.78573722 0.60975927 0.83772868 4278190335
0 2.6176078 0.14824697 4278190335
0.43793178 1.7749332 0 4278190335
0 0.51846176 0.67337197 4278190335
0.58376372 2.3920772 0.99507362 4278190335
2.2498417 0 0 4278190335
0 0.35971335 1.1879297 4278190335
0 1.7757521 0 4278190335
0 1.9842156 0 4278190335
0 0 0.049230542 4278190335
0.73412061 0.51221132 0 4278190335
0 0 0 4278190335
0 0 1.3888988 4278190335
0 0 0 4278190335
0 0 0.61744022 4278190335
0.46234003 0 0 4278190335
0.93015087 0 0 4278190335
0 2.0526059 0.2766234 4278190335
0.90745461 0.91561913 1.6001005 4278190335
0 1.4533548 0.68152124 4278190335
0.52372134 0.30699259 0.92138284 4278190335
0 1.2419376 1.1411413 4278190335
0 0.58005607 0 4278190335
0 0 0 4278190335
0 2.6493196 0 4278190335
0.87413627 1.8810256 0.51672894 4278255360
0 0 0.63905364 4278255360
0 0 0 4278255360
0.19750381 0 0.9671545 4278255360
0 0.64783388 0 4278255360
1.0940305 0 0 4278255360
0.35605332 0 1.2996105 4278255360
0 0 0 4278255360
0 0.38736966 1.04749 4278255360
0 2.2136328 0.097852841 4278255360
0.5435158 0 0.38170996 4278255360
0 0 1.0414177 4278255360
0 0.53109521 1.482833 4278255360
0 1.7468934 1.4215449 4278255360
0.80361235 0 0.31715798 4278255360
0 0.57662404 0.64056838 4278255360
0.24314307 0 0 4278255360
0.2049291 0 0 4278255360
1.4542871 0.4475224 0 4278255360
0 0.99382728 0.76147842 4278255360
0 0.53552586 0.88055032 4278255360
0.12232277 0 0 4278255360
0 0.092105299 0 4278255360
0 0 0.92180008 4278255360
0 0.10432542 0.037691087 4278255360
0 1.1279962 0 4278255360
0.8068223 0.462809 1.0423352 4278255360
0 1.3399082 1.1741312 4278255360
0 0.50244027 0 4278255360
0.46620402 1.1047032 0.045805287 4278255360
0 0.9550156 1.5173393 4278255360
0 0.46074086 1.1376132 4278255360
0 0.6600579 0 4278255360
0.15236561 0 0.072920322 4278255360
0 1.846319 0.93009651 4278255360
0.44120282 0 0.099364333 4278255360
0.095699623 0.12010465 0 4278255360
0.32429862 0 0.93622142 4278255360
0.33388504 0 0.18748896 4278255360
0 0 1.5325999 4278255360
1.3514533 0.67967665 0 4278255360
1.4410032 0.66745442 0.85433632 4278255360
1.208015 0 0 4278255360
0 0 0 4278255360
0 1.6765366 0.68211436 4278255360
0 0.24220079 0 4278255360
0.79507709 0 0 4278255360
0.31505165 0 2.9054549 4278255360
0 0 0 4278255360
0.66339868 0.014540049 0 4278255360
0 0.79898667 0 4278255360
0 0.18158048 2.4576268 4278255360
0.22137912 0.56945372 0.49927631 4278255360
0 1.1240426 0 4278255360
0 1.4748738 1.4784557 4278255360
0 0.015000499 0 4278255360
0 0 0 4278255360
0 1.578023 0 4278255360
0.53748399 0.026882071 1.3516358 4278255360
0.057235166 1.352772 0 4278255360
1.9289805 0 0.66422403 4278255360
0 0.6371479 0.0011067035 4278255360
0 1.0241628 0.49078095 4278255360
0.11305352 0 0 4278255360
0.022690801 0.1995208 0.46816561 4278255360
0 0.31243515 0 4278255360
0.48482555 2.2438853 0 4278255360
0 1.5956861 1.9666448 4278255360
2.1357005 0 0 4278255360
0.14771518 0 0 4278255360
0 0.063694149 0 4278255360
1.149848 1.5192382 0.94104338 4278255360
0 0.78323573 0 4278255360
0 1.9180267 0 4278255360
0 0.53857988 0.53579587 4278255360
0 0.69715583 0.54796165 4278255360
0 0.27562627 0 4278255360
0 0 0.21833093 4278255360
0 0 0 4278255360
0 2.3028679 0 4278255360
0 0 0.7268737 4278255360
0.47826973 0.34821591 0.51593685 4278255360
0 1.0203696 0.31375137 4278255360
0.69081694 0 0 4278255360
0 0 0.015120871 4278255360
0 1.5431551 1.6484377 4278255360
0 0.35841081 0.85653317 4278255360
0.52534425 0.097307362 0 4278255360
0.38028291 0 0 4278255360
0.85527837 1.0051392 0.96224821 4278255360
0 0.2287986 0 4278255360
0.598153 0 0 4278255360
0.97274595 0 0.33025694 4278255360
0 0 0 4278255360
1.3442672 0 0.093979813 4278255360
0.033036824 0 0.59016734 4278255360
0 0 0 4278255360
0 2.8712852 0 4278255360
0 0.24516408 0 4278255360
0.37449422 0 0 4278255360
0 0 0 4278255360
0 0 0 4278255360
0.69462311 0 0.64599216 4278255360
1.1601406 0 0 4278255360
0.063219897 0 0 4278255360
0 0 1.176345 4278255360
0 0 0.036363259 4278255360
0.35695466 0.37587515 0 4278255360
0 0.20178425 0 4278255360
0 1.6220837 0.53264034 4278255360
0 0.56056982 0 4278255360
0 0.38478202 0.070243314 4278255360
0.19788708 0.031204062 0 4278255360
0.69626772 0 0 4278255360
0 0.6331479 0.26891822 4278255360
0 0.88256437 1.143665 4278255360
0.9261781 0 0.91695267 4278255360
0.27037966 1.1705188 0.66460419 4278255360
0 0 2.0115082 4278255360
0.83827758 0 0 4278255360
0 0.077887692 0.15873633 4278255360
0.044793926 0 0.98316187 4278255360
0 0.60290098 0 4278255360
0 0 0.48387399 4278255360
0 0.73595375 0 4278255360
0 0 0.83344167 4278255360
0 0.027321596 0.91256529 4278255360
0 1.1569446 0 4278255360
0 0.99379194 0.66176921 4278255360
0.095127888 0 0.45941767 4278255360
0 1.8550119 1.6323884 4278255360
0 1.0715799 0 4278255360
0.39669546 0.97761482 0.2227941 4278255360
0 0 0 4278255360
1.3306726 0 0.78294861 4278255360
1.6091684 0.60076487 0 4278255360
0.76826733 0 0 4278255360
0.11902437 0 0.021780683 4278255360
0.06307219 0 0.85185611 4278255360
0 0 0.831563 4278255360
0 0.69188917 1.9668313 4278255360
0.60911238 0 0.26167351 4278255360
0 2.3397539 0.30213144 4278255360
0 0.033538047 0 4278255360
0.62949622 0 0.17059474 4278255360
0 0.39057392 2.5142615 4278255360
0.12215385 0.43238869 0 4278255360
0 0 1.0163735 4278255360
1.0297662 0.31807268 0 4278255360
0 0.46170539 0.73160869 4278255360
0 0 0.23791285 4278255360
0.80422211 0.37946686 0 4278255360
1.4159665 0 0.17194752 4278255360
0 0.008080068 0.017453393 4278255360
0 1.1220624 0 4278255360
0 1.9904156 1.1350261 4278255360
0 2.9838259 0 4278255360
1.5032632 0.10214668 0.47431877 4278255360
0 0 0 4278255360
0.12346781 1.3090153 0 4278255360
1.8901509 0.90204793 0.94163877 4278255360
0.48583713 0.3566426 0 4278255360
0.46177131 0 0.62144578 4278255360
0 1.9296449 0 4278255360
0 0 0 4278255360
1.1335309 0 0.83162773 4278255360
0 0 0 4278255360
0.38498491 1.379934 0 4278255360
0 0.78032339 0 4278255360
1.0654945 1.3050541 0 4278255360
0.96338218 1.2695071 0.83638489 4278255360
0 0.71192473 1.1256195 4278255360
0 2.1849411 0.014475249 4278255360
0 0.15480505 0 4278255360
1.1663224 0 0 4278255360
0.50959355 0 0 4278255360
0 0.81673396 0 4278255360
0.97089088 0 0.31056759 4278255360
0 0.72582269 0.75363195 4278255360
1.035382 0 0.16623528 4278255360
1.1520174 0 0 4278255360
0 0.034126218 0 4278255360
1.626949 0 0.21926926 4278255360
0 1.7846366 0 4278255360
1.2368815 0.048865445 1.2050776 4278255360
0 1.7094686 0 4278255360
0 0 0 4278255360
0.69212532 0 0.35097998 4278255360
0 0 0 4278255360
0 0.92763072 0.76112157 4278255360
0.69463903 0 0.060547836 4278255360
0 0.36995792 0.50209129 4278255360
0.54925841 0.40256476 0 4278255360
0 0.64113724 0.77798527 4278255360
0 0 0 4278255360
0.020864256 0.91555315 0 4278255360
0 0 0 4278255360
0.51931971 0 0.91825557 4278255360
0 0.095455483 0.91249037 4278255360
0.62894875 0.055449009 1.6395302 4278255360
1.4816816 0 0.10060676 4278255360
0.15123369 0 0 4278255360
0 1.7520447 0 4278255360
0.5276792 0 0.35066295 4278255360
0 0.41547611 1.1264154 4278255360
0.15488663 0 2.0777721 4278255360
0 0.79018772 0.18827173 4278255360
0 0 0 4278255360
0 0.85173041 0 4278255360
0.84653413 0 0 4278255360
0 0.68629271 0.38397503 4278255360
0 0.38106418 0 4278255360
0.65392309 0 0.0022856086 4278255360
0 0.42092499 0 4278255360
1.4439741 0 0 4278255360
0.24670886 0.16831036 0 4278255360
0 0 0 4278255360
0 1.3552386 0 4278255360
0 0 0 4278255360
0 0 0 4278255360
0 0.47414368 0.49425793 4278255360
1.5135411 0 0.31864682 4278255360
0 0.45037511 0.087631427 4278255360
1.250638 1.7764983 0.076040357 4278255360
0 2.2009132 0.58437997 4278255360
0 2.3304021 1.6746572 4278255360
0.80036634 0.60441399 0 4278255360
0.34465396 2.7178793 0 4278255360
0 0 0.25247353 4278255360
0.43611321 0.79433316 0.53075731 4278255360
0 0 1.498693 4278255360
0.66294664 0.55361956 0 4278255360
0 0.35363513 0 4278255360
2.1132402 0.13740161 0 4278255360
0 0 1.2938942 4278255360
0 0 0.55331278 4278255360
0 0 0 4278255360
0.16652147 0 0 4278255360
0.054923199 0.94709897 0 4278255360
0.021442242 0 0.10219616 4278255360
0 1.6510813 0.19562149 4278255360
0 1.4338709 0.12564299 4278255360
0.88180405 0 0.54249251 4278255360
1.3359199 0 0 4278255360
0 0 0.46510348 4278255360
1.84246 0 0 4278255360
0.066593982 0.012971349 0 4278255360
1.2705747 0 0.48898476 4278255360
0.61120284 1.3213576 0 4278255360
0 0 0.7006644 4278255360
1.5606992 0 0.14465243 4278255360
0.025097452 0 0 4278255360
0 0 0.080481209 4278255360
1.3487622 0 0 4278255360
0 1.338096 0 4278255360
0 0 1.5550911 4278255360
0.63693678 0 0 4294901760
0 0 0.097981513 4294901760
0.9954074 0 0 4294901760
0.55851382 0 0 4294901760
1.6360494 0 0 4294901760
0 1.2756822 0.170045 4294901760
0.10757622 0.42113042 1.6305419 4294901760
1.3122954 0 0 4294901760
0.18476637 1.2588581 0 4294901760
1.5972421 1.82804 0.14251474 4294901760
0 0 0.30676168 4294901760
0.30842388 1.9300905 0.61191308 4294901760
0 0.6539306 1.0489417 4294901760
0.084485076 0 0 4294901760
0 0 0.10485314 4294901760
0 0.61668354 2.1338475 4294901760
0.94857925 0 0 4294901760
0 0 2.4526913 4294901760
0.44509989 0 0 4294901760
1.2674042 0 0 4294901760
0.96606308 0 0 4294901760
0 0 0 4294901760
1.0079119 0 0 4294901760
0 2.1711798 0 4294901760
0 0 0 4294901760
0 0.56296897 0.047357474 4294901760
0 1.1010348 0.40202981 4294901760
0 2.0975618 1.8330733 4294901760
0 1.3831418 1.1598564 4294901760
0.048324995 0 0 4294901760
0 1.5421053 0.79867941 4294901760
0 0.54702109 0 4294901760
0 0 1.744199 4294901760
0 0 0 4294901760
0.99670017 0 0 4294901760
0 1.2501684 0.93028045 4294901760
0 0 1.3468354 4294901760
1.9572746 0.52831054 0.46361744 4294901760
0.00031325061 1.4100634 1.2334877 4294901760
0.86045206 0 0 4294901760
1.1292372 0 0 4294901760
0 0.93847275 0 4294901760
0.92336804 0 0.061596408 4294901760
0 0 0.14812168 4294901760
0 0 0 4294901760
0.69901043 0.88985765 0.76549435 4294901760
0.62952954 0 0 4294901760
0 1.1896288 0 4294901760
0.5329569 0 0.64387667 4294901760
0 0.46682534 0 4294901760
0 0.75006253 0.10972912 4294901760
0 0.28725478 0.48402944 4294901760
1.4108331 0 0 4294901760
0.48557267 0 0.21506166 4294901760
0 1.1464963 0 4294901760
1.2329478 0 0 4294901760
0.72961718 0 0.56624764 4294901760
0 1.0014457 0 4294901760
0 0.10020243 0.087651245 4294901760
0 0 0 4294901760
0.76577014 0 0 4294901760
0 0 0 4294901760
0 0.97879452 0 4294901760
0 0 1.4526289 4294901760
0 0.86370736 0.58936602 4294901760
0 1.1601952 0.34933549 4294901760
0.61825472 1.8973237 0.16766208 4294901760
0.50698364 0 1.5586425 4294901760
0.29634672 0.24356276 0 4294901760
0.067291297 1.7772546 0 4294901760
0.2727401 0 0.037858598 4294901760
0 0 0.524804 4294901760
0.064730369 0 0.43101263 4294901760
0 0 0.82796818 4294901760
1.0762352 0 0 4294901760
1.2496181 0 0 4294901760
0 0.334218 0 4294901760
0 0 0 4294901760
0 0.67737675 1.1822927 4294901760
0 0 0.19149321 4294901760
0.23876359 0.3425526 0.19897461 4294901760
0.14688914 0.048990302 0 4294901760
0 1.0053638 1.437825 4294901760
0.82787573 0 0 4294901760
0 0.79024154 0.60294181 4294901760
0 0.19598579 1.4823486 4294901760
0.43881497 1.0620309 0.1681584 4294901760
1.2131895 0 0 4294901760
0.89951628 0 2.0383477 4294901760
1.4494847 0 0 4294901760
0 0.71035904 0.055269863 4294901760
1.1481985 0 0 4294901760
2.1137743 0 0 4294901760
0.45416588 0.427569 0 4294901760
0.99144655 0.39836445 0.0018650333 4294901760
0 1.1431526 0 4294901760
1.1924118 0 0 4294901760
1.1193992 0.10752255 0 4294901760
0.80542094 0 0 4294901760
1.9400206 0 0 4294901760
1.0854113 0 0 4294901760
0.0093971789 0.64935416 0 4294901760
0 0 0.29817918 4294901760
0.16613723 0.10778482 0 4294901760
0.75908589 0 1.3726838 4294901760
0 0 0.042979181 4294901760
1.3419383 0 0.13378426 4294901760
0.42985803 0 0.31935182 4294901760
0.75794995 0 0 4294901760
0 0.41254479 1.0776119 4294901760
0 1.4537047 1.4017916 4294901760
0 0 0.56412697 4294901760
0 0.95326126 0.64076549 4294901760
0.18923393 0 0 4294901760
0.072743826 0 0 4294901760
0 0.49980578 0 4294901760
0 1.8187771 0.68336427 4294901760
0 1.0170963 1.6133277 4294901760
0.22116797 1.2748648 1.4483526 4294901760
0 1.5194255 1.5056652 4294901760
0.53253573 0.96485919 0.87075388 4294901760
1.2183725 0 1.4836549 4294901760
0 0.36771503 0.77263749 4294901760
0 1.1461089 0.33153743 4294901760
0 0.95515281 0.58219129 4294901760
0.66292262 0 0.60596085 4294901760
0 0.77221709 0 4294901760
0 1.1973649 0.18596965 4294901760
1.0118731 0 0 4294901760
0.6964888 0.035198901 0 4294901760
0 0.47051111 0.068085141 4294901760
0 0.33865061 0 4294901760
0 0.29798016 0 4294901760
0.63127083 0 0 4294901760
0 0.013572475 0.7408694 4294901760
0 0 0 4294901760
0 1.2727113 1.0334846 4294901760
0 0.1238633 0 4294901760
1.2779646 0 0.18910478 4294901760
0 1.2291567 0 4294901760
1.5197846 0 0 4294901760
1.5361024 0 0 4294901760
0.86862922 0 0.16690657 4294901760
0.39243227 1.6555967 0.53001022 4294901760
0 0 0.49820727 4294901760
0 1.3217477 0.26939687 4294901760
0 0 0 4294901760
0.50287813 0 0 4294901760
0.77135307 0.21375141 0 4294901760
0 0 1.5198377 4294901760
0 0.59369802 0.73342341 4294901760
0.96256995 0 0 4294901760
0 1.2685324 0.4040454 4294901760
0.66049218 0 0 4294901760
1.2581433 0 0 4294901760
0 0.96962732 0.35631397 4294901760
0.58702916 0 0 4294901760
0 0 0 4294901760
0 0.50651193 0 4294901760
0.21861246 0 0 4294901760
0.95886415 0 0 4294901760
1.210121 0 0.57899266 4294901760
1.1638634 0 0 4294901760
0 0 0.14168996 4294901760
0 0.57100034 1.0014355 4294901760
0 0.47966206 0.30122009 4294901760
0 0 0 4294901760
0.78553879 0 1.3705047 4294901760
0.4630022 0 0 4294901760
0 0.68763781 1.2522092 4294901760
0 0.79151851 0.98868543 4294901760
0.0072898474 0.17131476 1.7746648 4294901760
0 1.9617229 0 4294901760
0 1.1907641 0.3360337 4294901760
0 0 0.68499911 4294901760
0 1.263122 1.5008038 4294901760
0 1.7710929 0 4294901760
0 0.58309352 1.0211334 4294901760
0 0.95922792 0 4294901760
0 0 0.075070284 4294901760
0 0.6646899 0.77937287 4294901760
0 0 1.4162273 4294901760
0 0.79745936 0 4294901760
0.20124389 1.2612541 0 4294901760
0 0.47741988 0.10697304 4294901760
1.465507 0 0.20414899 4294901760
1.5124134 0 0 4294901760
0 0.94837904 1.0554792 4294901760
1.1702253 0 0 4294901760
1.4718331 0.84387088 0 4294901760
0.82335818 0 0.49230865 4294901760
0 1.8616054 0.78056204 4294901760
1.2913048 0 0 4294901760
1.1363964 0.061722521 0 4294901760
1.0934325 0 1.548988 4294901760
0 1.0288647 0.95607632 4294901760
0.074077383 0 0 4294901760
0 1.4692329 1.0178045 4294901760
0 0.07297758 1.3318808 4294901760
0.975986 1.9107687 0 4294901760
0 0.3204366 0.15793279 4294901760
0 0 0.64087015 4294901760
0 0.38642025 0 4294901760
0.53975916 0 0 4294901760
1.0567849 0 0 4294901760
0.38081756 0.19653484 0 4294901760
0 0.22888838 0.50829566 4294901760
1.2564998 0.72342563 0 4294901760
0.0066219154 0.26641554 0.40722767 4294901760
0.73590726 0.3104879 1.8708372 4294901760
0.042639941 0 0 4294901760
0 0.16502443 0 4294901760
0 0 1.2794594 4294901760
0 1.1325266 0.16797383 4294901760
1.0102689 0 0 4294901760
0 0 0.48043329 4294901760
0 0.99470913 1.1986022 4294901760
0.31560686 1.3496205 0 4294901760
1.4039282 0 0 4294901760
1.2772392 0 0.25872391 4294901760
0.80587912 0.52958465 0 4294901760
0 0.54191077 0.90120173 4294901760
0 0 0.61679763 4294901760
0.71902966 0.71914744 0 4294901760
0 0.78689975 0 4294901760
0 0.97423822 1.1080072 4294901760
1.4980073 0 0.71458238 4294901760
0 1.26363 0.6422897 4294901760
0 0 0 4294901760
0 1.692884 0 4294901760
1.3418328 0 0 4294901760
0 1.0753058 0.45509046 4294901760
0 1.0889553 0 4294901760
0 0.042675272 0.24947838 4294901760
0 0 0 4294901760
0.85221809 1.9577379 0 4294901760
0.99206877 0 0 4294901760
0.098645687 0.82034957 0 4294901760
0.96863538 0 0.83410126 4294901760
1.183165 0.030127585 0 4294901760
0.82331502 0 0 4294901760
0.062372193 1.7555388 0.42684826 4294901760
1.7697531 0 0 4294901760
1.2784003 0 0 4294901760
1.0524311 0 0 4294901760
1.4526187 0 0 4294901760
1.2113578 0 0 4294901760
1.1787596 0 0 4294901760
0 0.81182039 0 4294901760
0 1.5540036 0 4294901760
0 2.6790602 0 4294901760
0 1.9924372 0 4294901760
1.2404993 0.74777144 0 4294901760
0.98149294 0 0 4294901760
1.1003538 2.8929441 0 4294901760
0 0 0 4294901760
