# .PCD v0.7 - Point Cloud Data file format
VERSION 0.7
FIELDS x y z rgb
SIZE 4 4 4 4
TYPE F F F U
COUNT 1 1 1 1
WIDTH 1
HEIGHT 360
VIEWPOINT 0 0 0 1 0 0 0
POINTS 360
DATA ascii
2.8433867 2.5286224 5.398881 4278190336
0.53974831 7.0371981 6.1402664 4278190336
5.6103144 5.3481097 6.3517485 4278190336
1.5640355 2.7762108 6.0581541 4278190336
7.4158454 4.3159976 5.6368041 4278190336
0.38860303 4.5119014 8.6357155 4278190336
1.0001196 1.5335393 5.9486003 4278190336
3.6066618 1.0046644 0.91008186 4278190336
2.9853921 5.3820562 6.6563473 4278190336
0.89137936 1.5972257 0.56903797 4278190336
7.6333551 1.9598938 7.3634348 4278190336
9.9866543 3.5702095 1.0893698 4278190336
7.22225 7.3360248 5.0374365 4278190336
0.82990414 3.2384417 6.3217497 4278190336
5.9555683 8.3572693 8.092885 4278190336
8.5880051 2.9917824 4.5470066 4278190336
2.1243269 8.9248524 2.0128791 4278190336
7.812273 5.9699588 3.9211679 4278190336
3.8942151 8.842598 6.2757254 4278190336
0.063466802 6.8016934 3.0888395 4278190336
3.7459002 8.7848759 3.3791676 4278190336
7.357275 0.68540978 2.7728832 4278190336
3.9488029 6.6921539 0.77540934 4278190336
1.1313202 7.3145418 8.558568 4278190336
6.0104899 1.3327949 3.8556619 4278190336
8.6228981 8.3666506 4.7732835 4278190336
8.0093842 3.4835222 6.9596653 4278190336
8.8718243 1.8787004 0.32495651 4278190336
7.8456059 8.9617453 4.4545755 4278190336
0.21793202 1.2243305 4.4724078 4278190336
3.7411752 9.4633608 6.8358994 4278190336
0.62304252 7.5256529 5.6697912 4278190336
0.78580433 7.9989223 7.1820807 4278190336
5.8174901 8.4796257 0.70602179 4278190336
4.5229836 8.9268074 0.77478564 4278190336
7.4017615 6.1063218 6.9311752 4278190336
2.7707398 1.8812554 4.377975 4278190336
7.521358 6.9099312 8.8265553 4278190336
5.3083253 9.1669655 9.8854542 4278190336
9.6151991 9.4797373 5.5645204 4278190336
3.1596568 1.6223007 1.7213805 4278190336
2.6406524 1.1165715 5.5887246 4278190336
7.7093067 8.2205153 9.5920858 4278190336
1.8327202 3.7050834 6.9710646 4278190336
5.630384 0.94554901 6.8817811 4278190336
5.4579878 2.1928961 8.1842537 4278190336
5.7665634 2.3354359 2.0472183 4278190336
0.45964777 6.9749017 5.5914392 4278190336
1.6269714 5.5518942 5.1313334 4278190336
4.5590954 0.97811913 4.2262764 4278190336
1.6907606 3.660037 5.6986036 4278190336
8.5676994 5.2637568 1.9612241 4278190336
8.5087347 9.3042173 3.6378784 4278190336
5.0388012 5.0473251 2.565155 4278190336
1.9720953 4.834475 5.0649858 4278190336
7.2208815 0.32826078 7.4498773 4278190336
2.3176875 9.972538 2.3249111 4278190336
8.2495842 4.6741176 2.1964512 4278190336
3.6331389 1.5021017 1.6404092 4278190336
3.954941 1.6634903 3.2280807 4278190336
1.9971532 4.6548882 4.5181217 4278190336
3.0397654 5.858891 2.406363 4278190336
2.1685185 5.8177543 8.0409927 4278190336
0.71754283 2.1124823 3.6277964 4278190336
8.6709862 3.0157413 1.295312 4278190336
6.41366 6.3139606 5.6731586 4278190336
7.8615723 3.0109966 2.3515337 4278190336
7.0051098 0.46891046 9.3817396 4278190336
3.8431759 9.8492241 8.9352465 4278190336
8.5915556 7.6311326 9.3766413 4278190336
6.8680887 2.5289755 9.1239853 4278190336
4.0736637 6.6186209 7.2420607 4278190336
4.4291511 5.7566314 9.2439022 4278190336
3.6997557 5.4845505 8.9250393 4278190336
9.3440065 5.5786533 9.1210928 4278190336
5.6815586 0.10802884 6.9317646 4278190336
4.1494231 2.4579196 1.7650245 4278190336
1.1308198 3.6992712 4.2359705 4278190336
3.3631227 6.857255 4.6500626 4278190336
4.9725585 9.4770947 2.3373656 4278190336
4.2390122 8.3622808 6.6928663 4278190336
3.0025525 4.8279467 4.133626 4278190336
3.8132265 4.7304134 5.9168701 4278190336
6.062151 3.5386739 2.8629761 4278190336
1.4224292 3.7995501 5.877182 4278190336
3.204416 2.5148177 2.9713473 4278190336
7.3577309 7.7079859 2.7456088 4278190336
5.4164772 0.04982584 1.2687459 4278190336
1.3235412 7.8178501 4.9929028 4278190336
7.5676017 2.3845122 8.991271 4278190336
0.25856528 9.5786333 0.14069717 4278190336
0.75961041 3.7170482 0.86872107 4278190336
5.5933661 0.27196154 5.9187169 4278190336
7.54849 8.6338787 9.2587929 4278190336
0.95963502 9.3285942 4.1531315 4278190336
6.658463 0.1006418 9.3387365 4278190336
5.9020734 1.0068901 1.6500642 4278190336
4.210331 8.3546343 9.6637812 4278190336
1.5261188 4.6169467 0.99441719 4278190336
8.6389875 1.7524772 1.7183185 4278190336
9.0123138 7.7958746 7.7761431 4278190336
0.27872398 3.8379917 2.8025839 4278190336
9.1243401 9.8040571 4.2556138 4278190336
9.6891375 0.2709167 8.4593306 4278190336
1.5979494 1.643219 4.3284616 4278190336
1.8336291 8.4769144 0.53308493 4278190336
8.2104521 7.9739532 9.2903891 4278190336
8.2761774 1.0932456 2.1188817 4278190336
0.08379297 0.37671387 1.5267589 4278190336
2.7860265 8.2774496 9.690506 4278190336
4.7222309 7.4725285 3.7054577 4278190336
2.1739182 6.8660779 1.3481141 4278190336
7.2148037 8.1352758 8.9440651 4278190336
3.9028521 5.102829 7.5814724 4278190336
8.3569298 6.7108364 2.6776137 4278190336
7.4817095 7.91049 0.61011636 4278190336
1.7586071 0.74409014 0.82975024 4278190336
3.7772143 8.1554308 7.0362287 4278190336
3.1163902 2.9783628 1.4839897 4278190336
9.8769627 7.7351885 3.3827784 4278190336
9.202384 9.5166368 6.3362179 4278190336
8.4592943 8.271884 8.5108242 4278190336
4.2084265 1.7753475 3.0064516 4278190336
6.8323283 5.1048036 2.0321908 4278190336
7.6089387 4.4130378 1.2740929 4278190336
4.9160757 8.4527721 1.8107873 4278190336
4.8950329 9.3709545 0.74734282 4278190336
9.5106668 2.8856494 4.6846061 4278190336
8.0429096 5.0388718 4.4806991 4278190336
0.52098262 2.5508018 5.1011748 4278190336
6.8938375 1.4072007 2.3327603 4278190336
6.9338884 7.6964993 3.5588136 4278190336
3.9922633 5.4367871 5.6587067 4278190336
2.4818513 4.476316 3.4588299 4278190336
6.9728479 2.3433189 1.9996697 4278190336
3.3188815 6.2542148 1.6308111 4278190336
1.3560205 8.3418789 3.3815429 4278190336
1.1149164 5.4992461 0.29470545 4278190336
0.93057895 7.8110242 3.3465991 4278190336
3.5465426 3.7910786 0.26947713 4278190336
5.479784 6.1098776 2.9139946 4278190336
5.794076 9.0072517 2.7403686 4278190336
5.1804876 4.4282026 9.4340792 4278190336
5.6513381 5.5549331 8.5133677 4278190336
7.4939604 0.76753384 3.7538176 4278190336
0.85887843 5.1076918 1.3392693 4278190336
7.0420384 7.312202 0.23137988 4278190336
1.4104944 9.9017878 6.443625 4278190336
0.46804714 4.5960627 5.0736761 4278190336
9.895772 6.7457752 0.36896163 4278190336
2.7707503 9.9965725 1.1180708 4278190336
6.8945179 6.8948197 3.3177783 4278190336
2.216089 5.8657513 6.9857483 4278190336
9.3391047 4.0955248 8.6244488 4278190336
7.6633463 1.9990934 2.9120526 4278190336
1.9190998 0.16101187 8.6711617 4278190336
8.5832405 5.2618361 2.09813 4278190336
7.1697321 1.2210044 2.8338561 4278190336
7.3026114 3.9494486 8.4685211 4278190336
7.9859972 7.5877385 1.0623949 4278190336
0.81395984 2.0058341 9.5563993 4278190336
4.4653759 0.44782507 4.9516463 4278190336
7.49933 1.3247378 6.8262978 4278190336
6.7883453 7.2445369 6.2790031 4278190336
8.9507875 2.1343913 1.5424492 4278190336
1.8348458 8.5660858 0.74673796 4278190336
0.33766571 7.3709989 9.917798 4278190336
8.751214 5.3370771 2.4410493 4278190336
8.050148 9.7736816 4.0697384 4278190336
3.2200525 2.2977269 1.3625364 4278190336
3.6501262 6.9522505 3.2290032 4278190336
3.9007928 0.031591892 4.6042132 4278190336
3.8978503 2.517025 2.4937978 4278190336
3.3029344 3.8405941 4.2009444 4278190336
3.8163593 0.0039546154 2.5413461 4278190336
8.1110926 2.9826808 2.2832539 4278190336
1.724417 7.2961879 9.0004683 4278190336
4.1515012 2.9799757 4.4354854 4278190336
8.310216 4.3811731 1.1195202 4278190336
6.4151573 5.3474717 0.86998767 4278190336
4.4709558 8.0182219 2.7536287 4278190336
8.9534101 7.8530388 0.66692233 4278190336
7.1662045 9.0104771 6.5979047 4278190336
0.74254936 7.5492244 0.53118753 4278190336
7.8269491 5.9808893 2.4117427 4278190336
5.7187748 8.2311449 7.3730092 4278190336
8.3871403 7.9337811 5.3685212 4278190336
0.20957124 8.3588524 0.91786265 4278190336
0.52405602 1.0184394 2.2236333 4278190336
7.6844082 1.0019211 3.0037131 4278190336
7.9438343 0.8365643 4.5185366 4278190336
9.0826645 4.4921961 5.3558183 4278190336
9.9170113 8.3077269 7.7464032 4278190336
3.1828353 8.499361 3.2245708 4278190336
7.2064543 9.1250715 8.5407391 4278190336
4.1655221 5.1107769 4.0038419 4278190336
9.0840607 4.3013878 4.5775099 4278190336
1.4864208 4.5715556 3.4181345 4278190336
4.084125 3.3898592 3.3865566 4278190336
5.0176811 2.8734779 2.0457265 4278190336
1.1260388 2.0440412 3.8939624 4278190336
6.8850117 4.46066 1.1954255 4278190336
7.9458704 8.420742 5.0238853 4278190336
1.268803 2.4861631 8.202673 4278190336
5.0980048 0.37427068 4.3885231 4278190336
8.0472393 8.6684551 5.0371165 4278190336
6.6824298 2.2818849 4.6881347 4278190336
9.8470592 9.0170269 2.4368105 4278190336
3.219419 6.0900235 6.3972592 4278190336
4.199554 3.6374733 4.3707066 4278190336
0.69421959 4.2771645 5.4013896 4278190336
5.3240585 4.5259509 5.6655874 4278190336
8.1107721 2.8069096 6.5335898 4278190336
9.3007889 2.759408 6.8748112 4278190336
2.460397 1.3894308 7.6349587 4278190336
7.1748214 5.0571256 1.9907589 4278190336
6.071403 4.4172106 3.2355695 4278190336
9.4386749 1.9008522 8.6919546 4278190336
0.27153343 1.0194104 1.6417981 4278190336
1.6629422 8.2364922 7.6591139 4278190336
4.1101904 4.8784122 1.8385246 4278190336
9.9997082 6.3034992 8.732378 4278190336
5.6289248 2.2856731 1.4592974 4278190336
4.7023039 1.2286185 4.5561371 4278190336
3.3510885 1.4051361 0.28037226 4278190336
1.1875194 4.5674 6.3839016 4278190336
2.1760848 1.531428 5.1476617 4278190336
8.5857563 4.5336409 9.6260157 4278190336
1.2902279 6.8618593 7.6831112 4278190336
0.15582956 8.5550594 3.5944457 4278190336
4.0683799 3.4996519 1.2851143 4278190336
0.51328295 7.1918087 2.7281592 4278190336
3.8889372 8.2520256 3.8358617 4278190336
2.5697317 1.6769383 5.6748667 4278190336
0.34109998 9.5312462 4.1133337 4278190336
5.4942317 3.6824012 1.7986271 4278190336
7.963984 5.9211965 1.8072948 4278190336
4.9302835 7.8516555 1.690725 4278190336
1.4826028 4.5015779 3.9432459 4278190336
1.003481 6.7251725 7.4844265 4278190336
2.2428391 1.1101639 7.2725658 4278190336
8.2939396 8.5186996 3.8061972 4278190336
8.1570396 6.1168528 3.3629651 4278190336
0.69157255 0.024196655 2.1677151 4278190336
9.7811871 0.01403388 0.42855418 4278190336
4.6725421 1.8004537 6.6365471 4278190336
5.6259279 1.5953548 5.4286575 4278190336
8.0564327 4.819284 3.6279824 4278190336
3.7790842 8.2061434 2.8477838 4278190336
2.6303377 6.1071749 5.3918142 4278190336
3.141341 5.2785592 3.0299716 4278190336
5.599978 5.9234929 7.8742318 4278190336
6.1507993 2.2784104 2.9642754 4278190336
0.031282112 7.3676271 8.4113617 4278190336
9.3964272 4.4321337 1.9389086 4278190336
8.1020937 0.35011566 1.3580656 4278190336
3.1230938 2.7755003 7.7780004 4278190336
8.5478706 1.9211764 1.4274858 4278190336
4.2847781 3.3980565 4.5109286 4278190336
1.1065518 4.2869859 6.9830446 4278190336
7.1398573 4.3415751 0.14299099 4278190336
9.0631523 8.8024921 2.6337862 4278190336
3.269222 8.2687397 1.7683327 4278190336
1.6155295 1.8644475 8.4196892 4278190336
5.8190594 5.4366012 9.328826 4278190336
9.0169306 0.34011805 4.5481853 4278190336
4.6258788 5.7860761 7.9839354 4278190336
6.7776318 7.2025099 9.1888008 4278190336
8.8184967 2.9953952 2.2697852 4278190336
1.6614102 7.5161953 3.9827445 4278190336
6.3170557 4.3932805 2.5558825 4278190336
2.7792847 3.3954682 5.6655178 4278190336
8.092803 9.0198145 5.7110624 4278190336
0.013444385 2.7952125 0.13685209 4278190336
8.9752874 5.4548354 9.6159592 4278190336
6.6051397 4.9600244 5.3256998 4278190336
0.57658798 1.1562859 3.8274133 4278190336
6.5177307 5.872592 6.0933676 4278190336
1.4646025 3.3988261 3.3424249 4278190336
7.9677825 6.507556 8.4362946 4278190336
5.7713313 8.9757109 7.0528197 4278190336
5.4535484 1.439793 4.9068017 4278190336
0.3609708 9.1761904 8.9450321 4278190336
2.8241613 5.5406547 3.815161 4278190336
8.5633459 2.2416072 0.61303049 4278190336
5.6183624 2.0386031 0.60840237 4278190336
0.67957109 7.3197451 9.8601704 4278190336
8.0426064 5.589098 6.2104201 4278190336
9.9611588 7.1571217 6.2965965 4278190336
4.4335332 5.9390593 2.7314467 4278190336
9.6879025 8.7257395 1.9257109 4278190336
0.43785155 9.5582657 4.2381887 4278190336
4.354033 6.0497351 5.4343004 4278190336
5.7649903 5.0480433 5.0604529 4278190336
5.5031281 6.9323549 8.6069927 4278190336
4.5689578 6.3027816 0.75661969 4278190336
3.9936638 0.7226724 2.6109791 4278190336
8.5851583 9.3102455 9.4537735 4278190336
5.2281933 5.3796844 9.8090706 4278190336
4.4211702 5.3254356 5.193038 4278190336
6.9785833 0.46961254 4.4862041 4278190336
0.074518189 9.2136202 4.7846656 4278190336
2.4245486 6.1066084 2.2993832 4278190336
2.2421389 1.6348021 6.528739 4278190336
8.1023264 3.5922332 4.7263126 4278190336
8.0805597 2.0873709 9.0937939 4278190336
9.3697186 8.758213 4.8283439 4278190336
6.2927032 1.5580018 8.9433041 4278190336
6.9658537 3.9082584 0.042439774 4278190336
9.7433186 7.2498202 5.6362686 4278190336
7.4919991 8.9541998 4.4298711 4278190336
2.027194 5.3423052 8.6187468 4278190336
0.67484945 3.4796705 7.271759 4278190336
3.1303656 2.3796875 8.8934002 4278190336
6.4625669 0.012617606 9.2620678 4278190336
8.6218777 7.1610022 4.936645 4278190336
6.2340136 1.1203562 6.1083136 4278190336
3.4777951 1.991221 1.823519 4278190336
6.7978978 4.5338588 0.018038817 4278190336
4.5349083 6.1009479 5.2699118 4278190336
9.6252804 5.9503489 8.1839199 4278190336
1.2091244 8.7504168 3.5926447 4278190336
5.6147766 5.3287888 1.1235739 4278190336
4.430027 6.1010556 7.7448077 4278190336
6.8288274 0.9672752 1.2814293 4278190336
1.2220646 5.4593391 5.470067 4278190336
8.690897 8.2844038 8.1779823 4278190336
5.658124 4.5619445 6.0010738 4278190336
9.299489 9.0023003 3.2856998 4278190336
1.9780228 9.564373 4.6390777 4278190336
4.968256 4.9899535 5.6523123 4278190336
6.8175454 0.1162624 0.85327554 4278190336
8.8723936 4.7654004 4.1737914 4278190336
8.9971628 1.2778949 7.3356771 4278190336
5.36026 8.5194378 3.0188055 4278190336
4.7968502 4.6876297 1.3395852 4278190336
7.8372927 8.9720192 4.0043025 4278190336
1.611184 0.64760458 2.7559268 4278190336
1.2585578 9.4777956 0.6665839 4278190336
6.012207 8.4346294 7.8468184 4278190336
8.0467224 2.2657399 4.715992 4278190336
1.2476671 0.76941574 4.8715086 4278190336
8.5514393 1.6119087 1.5187384 4278190336
3.2622004 0.15250437 7.6955671 4278190336
1.0179253 4.0428414 4.8324547 4278190336
1.2018048 9.5315533 4.5921769 4278190336
4.1064277 8.3619728 4.8747172 4278190336
2.9563415 0.79132402 5.8554769 4278190336
0.43470636 8.0747843 7.4350491 4278190336
0.45789555 6.41043 2.5003803 4278190336
3.1919191 4.0926895 6.9324741 4278190336
6.2141228 3.3221016 2.0094445 4278190336
4.3792458 4.8705506 7.8705807 4278190336
6.1915131 7.3518796 1.3415276 4278190336
1.2830471 0.99235642 8.881937 4278190336
0.53990757 1.4884398 6.9076977 4278190336
9.7672691 2.8022881 3.8303008 4278190336
3.128545 6.8563852 0.62997347 4278190336
3.8355374 7.9437113 1.4045396 4278190336
4.138248 5.879837 4.5022025 4278190336
