# .PCD v0.7 - Point Cloud Data file format
VERSION 0.7
FIELDS x y z rgb
SIZE 4 4 4 4
TYPE F F F U
COUNT 1 1 1 1
WIDTH 1086
HEIGHT 1
VIEWPOINT 0 0 0 1 0 0 0
POINTS 1086
DATA ascii
0.54837698 0.83755136 0.78164089 4294901760
0.48058036 0.088913552 0.45963961 4294901760
0.44429424 0.64658803 0.84440684 4294901760
0.24992616 0.70507771 0.30054152 4294901760
0.93827206 0.41188118 0.30808246 4294901760
0.38766044 0.46021071 0.16990295 4294901760
0.30227163 0.34576976 0.60559076 4294901760
0.25168467 0.40234551 0.97041136 4294901760
0.20765935 0.82546741 0.89032763 4294901760
0.36614129 0.19091398 0.72117209 4294901760
0.84108353 0.70373571 0.62001252 4294901760
0.69814157 0.85145164 0.41438606 4294901760
0.79175425 0.49989939 0.91404802 4294901760
0.76045668 0.66343009 0.91350871 4294901760
0.45517522 0.79280031 0.38794434 4294901760
0.18269183 0.51403069 0.60045683 4294901760
0.44081694 0.22509769 0.80988038 4294901760
0.2179001 0.68729377 0.79068196 4294901760
0.15920649 0.10939799 0.13034295 4294901760
0.38989913 0.84881634 0.57826906 4294901760
0.89134318 0.81474793 0.313319 4294901760
0.60539711 0.63831073 0.36176696 4294901760
0.71396333 0.85824496 0.32528237 4294901760
0.13802366 0.97695458 0.82771868 4294901760
0.074603528 0.42729244 0.79846382 4294901760
0.2467422 0.49387819 0.16186972 4294901760
0.29030022 0.44515017 0.99578595 4294901760
0.60934639 0.63742805 0.80296934 4294901760
0.56123179 0.046507876 0.62886238 4294901760
0.41222382 0.5867117 0.57458097 4294901760
0.19719015 0.61044222 0.6371215 4294901760
0.13029176 0.90669376 0.47506696 4294901760
0.77147406 0.58907712 0.27396715 4294901760
0.18532465 0.323163 0.48240271 4294901760
0.091765977 0.27871135 0.7147401 4294901760
0.5295409 0.65448993 0.19700862 4294901760
0.83015883 0.29601759 0.48922423 4294901760
0.26891476 0.13852273 0.97148341 4294901760
0.5213601 0.86091119 0.64884359 4294901760
0.42739645 0.79137582 0.29863352 4294901760
0.1866526 0.85228306 0.44961694 4294901760
0.9057368 0.20185807 0.83261269 4294901760
0.66585225 0.63047701 0.78588867 4294901760
0.68082428 0.97595739 0.067760251 4294901760
0.50977892 0.42752853 0.0687356 4294901760
0.45530394 0.57347852 0.10215887 4294901760
0.049222752 0.56356317 0.56443745 4294901760
0.99126458 0.82328737 0.66790223 4294901760
0.8751235 0.42544091 0.92544758 4294901760
0.59988654 0.78669363 0.0020822859 4294901760
0.069893099 0.37483478 0.37728179 4294901760
0.694749 0.72581261 0.28282771 4294901760
0.695072 0.86631435 0.088112362 4294901760
0.17555673 0.6238969 0.071020775 4294901760
0.41633835 0.9259879 0.82591903 4294901760
0.880539 0.53018886 0.090647407 4294901760
0.78970617 0.03799532 0.43052649 4294901760
0.58996564 0.64402258 0.40068266 4294901760
0.46595111 0.81280833 0.94298095 4294901760
0.1935962 0.9315868 0.39379445 4294901760
0.96142179 0.50333476 0.15228567 4294901760
0.028502455 0.67268008 0.57893091 4294901760
0.52215654 0.60712296 0.59280509 4294901760
0.82273352 0.85110867 0.035333727 4294901760
0.30398315 0.14986506 0.56106985 4294901760
0.00038384122 0.52356619 0.86958194 4294901760
0.52491587 0.72441238 0.9363308 4294901760
0.60522842 0.097135723 0.96978092 4294901760
0.75441885 0.91124052 0.7414524 4294901760
0.82682431 0.96261191 0.34580794 4294901760
0.19813222 0.69505066 0.11469391 4294901760
0.32807121 0.28240457 0.90816587 4294901760
0.001790037 0.0013319192 0.35650524 4294901760
0.61871558 0.25766692 0.41986021 4294901760
0.0064559882 0.74422663 0.9055711 4294901760
0.93379414 0.25421417 0.58312768 4294901760
0.65635449 0.89133352 0.83433324 4294901760
0.68767273 0.079964526 0.65787578 4294901760
0.36084092 0.29241163 0.20228592 4294901760
0.38487938 0.87726831 0.81529862 4294901760
0.78619599 0.61515534 0.14459747 4294901760
0.58902764 0.415007 0.083029553 4294901760
0.66756994 0.20211978 0.62570381 4294901760
0.44917622 0.91629469 0.16447514 4294901760
0.10506879 0.30633691 0.98025656 4294901760
0.244093 0.72189021 0.11021011 4294901760
0.38897052 0.074337661 0.73075217 4294901760
0.95553821 0.088722713 0.42656252 4294901760
0.22621712 0.34258589 0.97747213 4294901760
0.36049008 0.3113831 0.01901808 4294901760
0.85327691 0.87674731 0.77703702 4294901760
0.29051128 0.20353505 0.89758575 4294901760
0.12904559 0.4780134 0.064673059 4294901760
0.02218808 0.20280159 0.81320077 4294901760
0.47515327 0.28782079 0.87831795 4294901760
0.40979508 0.53732312 0.54944056 4294901760
0.74875218 0.43096 0.036421016 4294901760
0.53584212 0.37013742 0.2526609 4294901760
0.20657328 0.11432325 0.13249525 4294901760
0.12758614 0.65769333 0.40229955 4294901760
0.59143788 0.45824382 0.47084597 4294901760
0.91521794 0.80756402 0.37157917 4294901760
0.66163236 0.96526819 0.1694809 4294901760
0.41715065 0.81092459 0.043635078 4294901760
0.79069829 0.23176564 0.83359486 4294901760
0.86332172 0.39268166 0.33531532 4294901760
0.0064029768 0.46742386 0.029176308 4294901760
0.98786104 0.38394478 0.7095409 4294901760
0.67055696 0.53569239 0.60626191 4294901760
0.063069545 0.72887206 0.92551392 4294901760
0.090686195 0.65560728 0.92198902 4294901760
0.55984676 0.86934364 0.34238723 4294901760
0.39808372 0.28843641 0.11800447 4294901760
0.0038699242 0.48198575 0.28601483 4294901760
0.57299167 0.35642418 0.4226279 4294901760
0.06341517 0.281178 0.13984762 4294901760
0.29717574 0.39816985 0.65712243 4294901760
0.64115226 0.92513192 0.63208014 4294901760
0.82428074 0.96320575 0.091560595 4294901760
0.029077969 0.68139541 0.042005874 4294901760
0.89484638 0.17681699 0.43892571 4294901760
0.93420821 0.0014258373 0.08917696 4294901760
0.49316406 0.015640924 0.98695976 4294901760
0.47060102 0.10106459 0.88009489 4294901760
0.53323454 0.19041485 0.32615459 4294901760
0.85576755 0.11517543 0.68082482 4294901760
0.10401235 0.98818457 0.78438681 4294901760
0.48279339 0.39780158 0.24959645 4294901760
0.0933019 0.99816257 0.45927098 4294901760
0.085801139 0.25155702 0.80530846 4294901760
0.2097941 0.43732089 0.10193549 4294901760
0.89558083 0.6387006 0.8358264 4294901760
0.50418741 0.87783575 0.73427451 4294901760
0.11934312 0.31315914 0.90987575 4294901760
0.525603 0.41606995 0.60747051 4294901760
0.064557076 0.92455447 0.6116482 4294901760
0.15380101 0.2680487 0.31279796 4294901760
0.66693449 0.62296772 0.96113402 4294901760
0.31300312 0.93726486 0.93033344 4294901760
0.46552727 0.63846439 0.4085348 4294901760
0.44708186 0.5494135 0.39880425 4294901760
0.91146755 0.69922352 0.28674051 4294901760
0.5281828 0.47862852 0.247409 4294901760
0.19281758 0.018175649 0.064271927 4294901760
0.16257054 0.4519963 0.56693399 4294901760
0.57004851 0.88515103 0.080975659 4294901760
0.95388842 0.045909204 0.46143988 4294901760
0.89727569 0.93327105 0.61149073 4294901760
0.13769272 0.79864323 0.5295319 4294901760
0.80395979 0.12587634 0.26983547 4294901760
0.93504709 0.20994137 0.17518602 4294901760
0.88386571 0.82374054 0.3340874 4294901760
0.52826792 0.4023318 0.96717024 4294901760
0.47364041 0.09251947 0.077593282 4294901760
0.35051361 0.30540493 0.12459307 4294901760
0.28797999 0.15859291 0.33702868 4294901760
0.16479638 0.68685162 0.64679104 4294901760
0.26978084 0.44847178 0.80429697 4294901760
0.76419157 0.20518051 0.13238914 4294901760
0.0047148755 0.94154453 0.12371882 4294901760
0.68895799 0.20827258 0.19397803 4294901760
0.79371583 0.58432555 0.79164159 4294901760
0.92552912 0.60277474 0.13236105 4294901760
0.61753976 0.82324302 0.1395061 4294901760
0.23808621 0.30107906 0.69724876 4294901760
0.88466269 0.16158274 0.84874606 4294901760
0.75267398 0.30994982 0.20479272 4294901760
0.1164453 0.66936779 0.2717728 4294901760
0.97316974 0.78396684 0.70550078 4294901760
0.36347541 0.28106236 0.34004477 4294901760
0.5565635 0.1578871 0.65851372 4294901760
0.33053473 0.25321391 0.39088985 4294901760
0.29094025 0.21605574 0.24519426 4294901760
0.73701638 0.29379892 0.39948779 4294901760
0.24875502 0.48279586 0.77714473 4294901760
0.49832177 0.58198112 0.75210708 4294901760
0.36943248 0.46671319 0.076130822 4294901760
0.89869934 0.39539832 0.41498545 4294901760
0.57429361 0.022108415 0.11123433 4294901760
0.12013727 0.9778105 0.16892084 4294901760
0.94103247 0.010458332 0.9572131 4294901760
0.94688404 0.36423805 0.23246939 4294901760
0.72946876 0.08901304 0.40982708 4294901760
0.68283677 0.24875234 0.30246082 4294901760
0.48675236 0.74073303 0.051043399 4294901760
0.58653891 0.59004658 0.39587432 4294901760
0.6834715 0.48753345 0.2482616 4294901760
0.63149774 0.62216544 0.87310797 4294901760
0.62935072 0.36532694 0.79878134 4294901760
0.014818152 0.046335991 0.11398259 4294901760
0.2501882 0.38132116 0.26325411 4294901760
0.82960582 0.36429381 0.4667064 4294901760
0.69525462 0.20783111 0.66053331 4294901760
0.46493974 0.55880791 0.56979978 4294901760
0.39807123 0.23921829 0.17979623 4294901760
0.92189687 0.63634473 0.70016384 4294901760
0.74617761 0.39017045 0.95478201 4294901760
0.70257509 0.3769235 0.42671382 4294901760
0.2219618 0.69092548 0.31525695 4294901760
0.41648495 0.91006225 0.51453251 4294901760
0.44551995 0.716245 0.58885926 4294901760
0.44178253 0.33172333 0.9444949 4294901760
0.68097228 0.13745238 0.93162078 4294901760
0.46466348 0.20651273 0.86820781 4294901760
0.8359108 0.13766488 0.36040753 4294901760
0.88288903 0.087266304 0.30182081 4294901760
0.78298682 0.41835269 0.91441256 4294901760
0.82231241 0.70496058 0.78195482 4294901760
0.29974261 0.091012679 0.49997944 4294901760
0.86251473 0.098427154 0.93742955 4294901760
0.82946163 0.67044592 0.077713892 4294901760
0.80797696 0.85848254 0.86158264 4294901760
0.84010875 0.51946419 0.70366418 4294901760
0.82523918 0.20892374 0.37327194 4294901760
0.98381996 0.84148282 0.96282858 4294901760
0.76715541 0.18877859 0.91426253 4294901760
0.24598095 0.8867349 0.0057939859 4294901760
0.031240087 0.72403014 0.2123892 4294901760
0.73321307 0.7442537 0.97772926 4294901760
0.69462675 0.76433277 0.89554793 4294901760
0.75963819 0.17538111 0.24668303 4294901760
0.35651317 0.10575379 0.031389177 4294901760
0.28998145 0.55814588 0.74658525 4294901760
0.3929612 0.41295049 0.52759343 4294901760
0.28423136 0.43071669 0.32477382 4294901760
0.02986306 0.048211303 0.10131086 4294901760
0.75314003 0.15129185 0.060871948 4294901760
0.68774813 0.64653665 0.86996233 4294901760
0.012191409 0.063932776 0.82038033 4294901760
0.59445965 0.45864102 0.63890475 4294901760
0.53343624 0.48642066 0.66896498 4294901760
0.63347435 0.07425867 0.98516196 4294901760
0.99429047 0.12228741 0.83123684 4294901760
0.28749508 0.51365125 0.37496731 4294901760
0.034804698 0.65597796 0.59945738 4294901760
0.088431917 0.59071779 0.66058546 4294901760
0.58203214 0.21997668 0.65695053 4294901760
0.76817882 0.7183522 0.36361444 4294901760
0.29509383 0.1849643 0.37011704 4294901760
0.037802309 0.47880003 0.18172343 4294901760
0.65692389 0.65113652 0.66162187 4294901760
0.7855227 0.550749 0.6394524 4294901760
0.15125015 0.16893682 0.85368425 4294901760
0.24102959 0.090671413 0.4515641 4294901760
0.013328021 0.31024671 0.96337682 4294901760
0.96743482 0.82508475 0.29301485 4294901760
0.14106761 0.93273157 0.098245963 4294901760
0.6605314 0.5626629 0.4884634 4294901760
0.26022464 0.027406113 0.24099667 4294901760
0.56290936 0.29378927 0.74742889 4294901760
0.23369254 0.85982966 0.10155054 4294901760
0.53755957 0.00079028669 0.17307343 4294901760
0.7719419 0.035258181 0.25420621 4294901760
0.18634909 0.022597166 0.41210181 4294901760
0.03371077 0.58575153 0.6091553 4294901760
0.60394472 0.7930429 0.69216228 4294901760
0.093200199 0.30271453 0.24736807 4294901760
0.071826667 0.60256386 0.025316594 4294901760
0.71108317 0.34700641 0.2296537 4294901760
0.81571305 0.88165081 0.24792767 4294901760
0.92904276 0.83342642 0.66761565 4294901760
0.66737306 0.54159564 0.15432143 4294901760
0.41122726 0.88775831 0.43122205 4294901760
0.014230302 0.50323313 0.52568531 4294901760
0.34988967 0.46142548 0.1876362 4294901760
0.94488627 0.064029127 0.26254904 4294901760
0.3209773 0.20198704 0.44131297 4294901760
0.68269366 0.054824162 0.90945768 4294901760
0.83872211 0.086299606 0.35432193 4294901760
0.88342661 0.603203 0.48734346 4294901760
0.91994488 0.0084449425 0.77007139 4294901760
0.97504687 0.29723403 0.38752615 4294901760
0.84533578 0.98840201 0.15243755 4294901760
0.46838599 0.90498239 0.28996307 4294901760
0.029029753 0.71450132 0.92584181 4294901760
0.034943901 0.31153527 0.65841323 4294901760
0.62770134 0.38332146 0.11620642 4294901760
0.0045498861 0.36960107 0.088622324 4294901760
0.56206399 0.52842498 0.93793648 4294901760
0.84323978 0.031285144 0.1151002 4294901760
0.10978897 0.16554356 0.67413002 4294901760
0.60385072 0.46002674 0.56870824 4294901760
0.91716206 0.23246349 0.22556497 4294901760
0.62026358 0.16739023 0.2911298 4294901760
0.91179097 0.17135011 0.66351908 4294901760
0.7462365 0.081289962 0.37885472 4294901760
0.9509564 0.9918766 0.91604316 4294901760
0.73712862 0.14488982 0.34902546 4294901760
0.23502012 0.27141842 0.93817288 4294901760
0.71347016 0.29343599 0.68779069 4294901760
0.95568222 0.1086969 0.03421225 4294901760
0.44214803 0.073841892 0.56432599 4294901760
0.345768 0.2201739 0.89671081 4294901760
0.22366978 0.016676508 0.18520616 4294901760
0.16090904 0.9340654 0.89796406 4294901760
0.38064763 0.7179386 0.52345568 4294901760
0.66865349 0.96781749 0.69738817 4294901760
0.45527276 0.3686516 0.57112658 4294901760
0.88919866 0.7728591 0.54450703 4294901760
0.26992136 0.85828978 0.62692046 4294901760
0.47931892 0.72084904 0.14625993 4294901760
0.57558364 0.85733443 0.72111952 4294901760
0.81522107 0.035268664 0.2514928 4294901760
0.71801931 0.05326255 0.67100859 4294901760
0.36007556 0.8388359 0.23410504 4294901760
0.94067067 0.96518564 0.78207153 4294901760
0.17177905 0.85110438 0.93309325 4294901760
0.091580987 0.63824397 0.45549914 4294901760
0.34535089 0.88277441 0.024380947 4294901760
0.429901 0.82961833 0.81719053 4294901760
0.97760707 0.70792383 0.58334601 4294901760
0.55830979 0.26297408 0.28646266 4294901760
0.35604253 0.80678815 0.21216309 4294901760
0.37987378 0.73669004 0.94726884 4294901760
0.71366376 0.59017384 0.91740799 4294901760
0.38803753 0.88276696 0.5922069 4294901760
0.23957986 0.28172627 0.70754796 4294901760
0.34012178 0.42164224 0.9093613 4294901760
0.62737101 0.011942513 0.47938266 4294901760
0.65462273 0.5116455 0.48783305 4294901760
0.44113511 0.24226105 0.73863381 4294901760
0.91788203 0.25073534 0.06323722 4294901760
0.26026839 0.80025679 0.48467392 4294901760
0.49455374 0.32783037 0.48313266 4294901760
0.15702823 0.15675215 0.79849893 4294901760
0.61893445 0.20057848 0.970909 4294901760
0.69788396 0.24158199 0.53457648 4294901760
0.65991056 0.35732138 0.92769498 4294901760
0.36251524 0.52247566 0.47332105 4294901760
0.95018059 0.27968583 0.80455697 4294901760
0.6415866 0.74958169 0.61027133 4294901760
0.16409078 0.37597904 0.87160975 4294901760
0.054088026 0.68735772 0.67247874 4294901760
0.75982171 0.015904199 0.84419662 4294901760
0.47722962 0.21601754 0.011106146 4294901760
0.27067548 0.97224158 0.57489014 4294901760
0.93837464 0.3734023 0.44249386 4294901760
0.27995753 0.27074069 0.62321204 4294901760
0.2739031 0.37546107 0.89190507 4294901760
0.28571999 0.41976309 0.60270971 4294901760
0.061814956 0.6846596 0.49379605 4294901760
0.88451022 0.6001088 0.71250474 4294901760
0.71621448 0.7764498 0.099660732 4294901760
0.34642607 0.67138928 0.4991996 4294901760
0.91828108 0.22974551 0.34292901 4294901760
0.10305465 0.066080846 0.41427067 4294901760
0.21649316 0.75449681 0.36356249 4294901760
0.79198188 0.40977824 0.45624068 4294901760
0.33399001 0.72428697 0.10208975 4294901760
0.10078948 0.30480877 0.15704152 4294901760
0.65113503 0.93788648 0.10427518 4294901760
0.22119153 0.31122473 0.95170599 4294901760
0.32339603 0.3338353 0.024664976 4294901760
0.19422881 0.57179111 0.88751197 4294901760
0.30818272 0.13934745 0.18576637 4294901760
0.47252566 0.85147399 0.61447179 4294901760
0.98840171 0.16252342 0.12146091 4294901760
0.48913538 0.53667033 0.40480539 4294901760
0.52186179 0.091438971 0.34663188 4294901760
0.84007245 0.93415731 0.56220055 4294901760
0.14814036 0.83781165 0.30046657 4294901760
0.35556224 0.79632699 0.11189923 4294901760
0.20830068 0.17585322 0.43559697 4294901760
0.91513878 0.41833389 0.22649603 4294901760
0.89804083 0.42434093 0.17657824 4294901760
0.37458608 0.11328471 0.18144538 4294901760
0.36821008 0.93204212 0.33005527 4294901760
0.21995319 0.88355291 0.36868668 4294901760
0.41012254 0.29926679 0.084660903 4294901760
0.062477794 0.22738697 0.38896152 4294901760
0.12857074 0.61500335 0.56090379 4294901760
0.27437308 0.80411249 0.30976599 4294901760
0.60244709 0.31571901 0.8555491 4294901760
0.93907303 0.89433241 0.87956613 4294901760
0.72189724 0.70744199 0.79227769 4294901760
0.2749972 0.14759544 0.30223587 4294901760
0.054900073 0.035662241 0.77671099 4294901760
0.78619975 0.6843009 0.99595499 4294901760
0.77180034 0.68593699 0.67343432 4294901760
0.50624508 0.26570553 0.89656729 4294901760
0.54814601 0.18038771 0.5695523 4294901760
0.87479258 0.33278406 0.61658096 4294901760
0.42499435 0.60965461 0.062616877 4294901760
0.89592475 0.4310905 0.92099482 4294901760
0.6521129 0.021633994 0.50289649 4294901760
0.031146413 0.98574185 0.47758216 4294901760
0.078881599 0.44926497 0.71567923 4294901760
0.73140305 0.016516592 0.61014539 4294901760
0.19169663 0.45660639 0.80619693 4294901760
0.8599816 0.60199112 0.68078023 4294901760
0.25902119 0.62264258 0.14840175 4294901760
0.21356021 0.043561522 0.58106536 4294901760
0.77822751 0.79699969 0.42057306 4294901760
0.39366311 0.02796768 0.82784086 4294901760
0.70140237 0.89542812 0.48217607 4294901760
0.91572869 0.21775559 0.66520429 4294901760
0.9023968 0.52466285 0.68204576 4294901760
0.55712301 0.29029411 0.72670823 4294901760
0.48731822 0.022575615 0.045936652 4294901760
0.080648884 0.495543 0.022722913 4294901760
0.73699194 0.16061105 0.2088123 4294901760
0.59745163 0.19522458 0.08297734 4294901760
0.69909924 0.00034539436 0.5840953 4294901760
0.069328964 0.79559028 0.27377173 4294901760
0.097484693 0.94424963 0.45088825 4294901760
0.59928513 0.98866433 0.4745121 4294901760
0.083289735 0.36052832 0.82924306 4294901760
0.24485776 0.70415175 0.41198578 4294901760
0.28865054 0.26871121 0.031319462 4294901760
0.90070438 0.67275238 0.73797989 4294901760
0.22080959 0.058658689 0.027442982 4294901760
0.98719269 0.96514922 0.15119207 4294901760
0.070715673 0.50730687 0.91846961 4294901760
0.49421358 0.5933466 0.70224327 4294901760
0.87814528 0.27212819 0.31001091 4294901760
0.36217847 0.96686912 0.49126273 4294901760
0.078324527 0.64657259 0.478973 4294901760
0.22450835 0.96468842 0.87094951 4294901760
0.37365055 0.063881449 0.35439605 4294901760
0.55533367 0.53097826 0.32412398 4294901760
0.24543273 0.99870187 0.35547253 4294901760
0.35950288 0.182385 0.30448008 4294901760
0.66264832 0.66591132 0.027615849 4294901760
0.61298054 0.58164239 0.034357257 4294901760
0.83392358 0.83694994 0.62446231 4294901760
0.33393043 0.23672736 0.14624718 4294901760
0.40352875 0.73854518 0.32830277 4294901760
0.10177231 0.10071906 0.016625632 4294901760
0.73520106 0.77802283 0.070526667 4294901760
0.71081936 0.89703423 0.31123361 4294901760
0.78268087 0.47478881 0.36070552 4294901760
0.30615655 0.64280039 0.46811426 4294901760
0.049042765 0.33472639 0.19730772 4294901760
0.91359806 0.38763213 0.19284961 4294901760
0.26233661 0.63741606 0.10154361 4294901760
0.88446254 0.20378828 0.77021146 4294901760
0.18385248 0.26976216 0.92504388 4294901760
0.24728593 0.21995877 0.29812789 4294901760
0.24199587 0.20395097 0.022504173 4294901760
0.084636822 0.59982705 0.067883298 4294901760
0.99287033 0.91126639 0.94488829 4294901760
0.03197778 0.42691422 0.99852705 4294901760
0.55163872 0.52154523 0.36835322 4294901760
0.99587977 0.94213116 0.71779037 4294901760
0.95911217 0.91078401 0.19229878 4294901760
0.89145082 0.50090462 0.7802031 4294901760
0.77656001 0.58693027 0.45036727 4294901760
0.87504607 0.40300399 0.31973135 4294901760
0.38085705 0.83610976 0.24977775 4294901760
0.54453439 0.48197839 0.45893195 4294901760
0.28815183 0.53273076 0.77421814 4294901760
0.61562371 0.012266402 0.44067121 4294901760
0.33204508 0.72380531 0.97363997 4294901760
0.636913 0.068516038 0.5575341 4294901760
0.018537093 0.21733654 0.44584388 4294901760
0.36552384 0.52691865 0.080024213 4294901760
0.24572606 0.69687128 0.44418496 4294901760
0.8753255 0.55410051 0.73044401 4294901760
0.69788951 0.53757393 0.98245454 4294901760
0.72434348 0.34317574 0.96066648 4294901760
0.88208795 0.54950386 0.94407618 4294901760
0.13816625 0.48322889 0.067520082 4294901760
0.21168877 0.48835829 0.0062294537 4294901760
0.35299161 0.073128566 0.045878358 4294901760
0.34598911 0.97418791 0.019886767 4294901760
0.34988996 0.61468393 0.76417178 4294901760
0.032499224 0.0072846925 0.17417184 4294901760
0.044328749 0.074580029 0.011222215 4294901760
0.55859178 0.30896372 0.022694366 4294901760
0.29431352 0.94504714 0.8363781 4294901760
0.4804574 0.30525443 0.5062024 4294901760
0.070643544 0.71319711 0.63719577 4294901760
0.97750425 0.45206627 0.90679753 4294901760
0.37810805 0.38635656 0.80023682 4294901760
0.78137201 0.76453155 0.48550662 4294901760
0.70729584 0.1407752 0.20389874 4294901760
0.55262583 0.94879717 0.84513956 4294901760
0.57515055 0.26741198 0.776371 4294901760
0.63768023 0.98377961 0.62480879 4294901760
0.89699358 0.96052015 0.0096162502 4294901760
0.11037147 0.83337426 0.053451534 4294901760
0.52702993 0.78729713 0.46737537 4294901760
0.5855391 0.78397763 0.023340058 4294901760
0.18396975 0.54927498 0.12626755 4294901760
0.50005811 0.56002313 0.49451879 4294901760
0.75161994 0.37788484 0.96089613 4294901760
0.0082223741 0.31765035 0.34984443 4294901760
0.37948102 0.091651678 0.78722954 4294901760
0.43575269 0.47390154 0.7026695 4294901760
0.14556317 0.19490947 0.17580241 4294901760
0.71816689 0.054444138 0.075226128 4294901760
0.070743628 0.70665091 0.70449561 4294901760
0.95228809 0.76030922 0.27047113 4294901760
0.50104052 0.55283785 0.53362495 4294901760
0.3672269 0.32220984 0.49452004 4294901760
0.37167451 0.61889583 0.11794317 4294901760
0.8667168 0.13090543 0.24356882 4294901760
0.38705203 0.71583539 0.41635147 4294901760
0.63623482 0.95909327 0.15164368 4294901760
0.14563321 0.3538098 0.27897695 4294901760
0.68612647 0.4974516 0.052947897 4294901760
0.097040504 0.68803036 0.20193335 4294901760
0.55418169 0.51840162 0.71144474 4294901760
0.82618576 0.86179739 0.49090374 4294901760
0.72406781 0.061945684 0.29891264 4294901760
0.087919541 0.5059008 0.10965681 4294901760
0.36261532 0.66857767 0.48592722 4294901760
0.95641583 0.24032848 0.69231182 4294901760
0.95140868 0.19301994 0.61551619 4294901760
0.43707734 0.54962665 0.47622159 4294901760
0.78951514 0.097440362 0.59996742 4294901760
0.90138227 0.37154311 0.10240271 4294901760
0.23516957 0.096800417 0.54077238 4294901760
0.22436941 0.77653795 0.68002373 4294901760
0.72418737 0.48751667 0.049269274 4294901760
0.43953055 0.33047968 0.9783414 4294901760
0.123657 0.073572345 0.77847815 4294901760
0.55455858 0.55335194 0.15792447 4294901760
0.47432059 0.047321595 0.64296228 4294901760
0.44261396 0.97088635 0.4329432 4294901760
0.76501197 0.34826759 0.25147393 4294901760
0.81734324 0.57125825 0.75388092 4294901760
0.90491164 0.61541432 0.881414 4294901760
0.9722895 0.28275844 0.16521908 4294901760
0.43926832 0.91777223 0.15180431 4294901760
0.11427827 0.15185836 0.37806854 4294901760
0.32554209 0.63378012 0.17147952 4294901760
0.78502703 0.81094402 0.72926116 4294901760
0.6121822 0.064697213 0.22406884 4294901760
0.54140347 0.0063027628 0.13766634 4294901760
0.35243431 0.032175422 0.63416135 4294901760
0.97960699 0.61169159 0.99140561 4294901760
0.93501633 0.28811446 0.53952509 4294901760
0.42575011 0.71820855 0.00043414312 4294901760
0.46988544 0.53469127 0.70354825 4294901760
0.41187882 0.34113014 0.91351312 4294901760
0.25900614 0.71772295 0.41594958 4294901760
0.39213112 0.67623252 0.37774619 4294901760
0.54735768 0.13928813 0.5986225 4294901760
0.7980454 0.41497505 0.30451226 4294901760
0.57877928 0.53177434 0.97292656 4294901760
0.18676062 0.31055239 0.27331278 4294901760
0.85978901 0.46383011 0.43944934 4294901760
0.53749257 0.64695358 0.93421167 4294901760
0.54252028 0.22649156 0.27815992 4294901760
0.76377231 0.7075848 0.11817992 4294901760
0.27111396 0.18191826 0.84265214 4294901760
0.9251796 0.40350112 0.96215093 4294901760
0.44078603 0.1150538 0.33677492 4294901760
0.52301812 0.50346351 0.63171184 4294901760
0.70119244 0.42381495 0.0023399466 4294901760
0.057277277 0.53437144 0.53263909 4294901760
0.77438128 0.75915945 0.38949075 4294901760
0.19804043 0.39528394 0.50193924 4294901760
0.78530717 0.80957627 0.23069018 4294901760
0.38401601 0.48701689 0.79293013 4294901760
0.99795502 0.45311755 0.65864307 4294901760
0.21771854 0.84572375 0.63612419 4294901760
0.42179218 0.21664371 0.52471983 4294901760
0.96611369 0.73560584 0.72206914 4294901760
0.80202311 0.57242501 0.34214216 4294901760
0.25966835 0.092835747 0.64876461 4294901760
0.54216987 0.66896635 0.3512412 4294901760
0.8692168 0.81352609 0.56275779 4294901760
0.046237554 0.799676 0.6190384 4294901760
0.087015204 0.81849188 0.69850683 4294901760
0.1752798 0.58403057 0.17965601 4294901760
0.08827889 0.052358456 0.057623677 4294901760
0.70961255 0.51068085 0.66999537 4294901760
0.35773394 0.37754887 0.68801194 4294901760
0.36317161 0.95992833 0.61002731 4294901760
0.66294491 0.52031493 0.074220136 4294901760
0.81329143 0.69758189 0.6773538 4294901760
0.70843339 0.27069005 0.83880222 4294901760
0.30715802 0.82722759 0.83709222 4294901760
0.16813356 0.38770029 0.73667312 4294901760
0.0039768396 0.99929011 0.9400999 4294901760
0.61083442 0.45365211 0.89941335 4294901760
0.81057733 0.78330851 0.063983455 4294901760
0.0033235936 0.23720551 0.74125236 4294901760
0.6524545 0.91629541 0.51525611 4294901760
0.0037106881 0.75691849 0.33050916 4294901760
0.47623095 0.32332566 0.69301969 4294901760
0.75193864 0.88258767 0.016765025 4294901760
0.14172302 0.99944484 0.022470629 4294901760
0.96585381 0.24446242 0.7565375 4294901760
0.031852711 0.7994765 0.037609499 4294901760
0.36124796 0.62242526 0.93500185 4294901760
0.69137281 0.75349265 0.032667175 4294901760
0.75924855 0.44307342 0.85532629 4294901760
0.073566966 0.013571194 0.63953072 4294901760
0.54140848 0.8692835 0.93081903 4294901760
0.71859956 0.78314781 0.67212862 4294901760
0.61708301 0.70535696 0.26389179 4294901760
0.073097251 0.85667205 0.27781415 4294901760
0.26572627 0.0083537074 0.66714025 4294901760
0.33463514 0.069456235 0.59079915 4294901760
0.94803506 0.26573718 0.56790489 4294901760
0.88149482 0.78069216 0.55097389 4294901760
0.32346517 0.48946011 0.027647819 4294901760
0.16108084 0.75172645 0.36022294 4294901760
0.2348274 0.44792879 0.47960973 4294901760
0.55971557 0.98206812 0.62067097 4294901760
0.42691547 0.11719409 0.37653989 4294901760
0.042754985 0.0056501953 0.79006952 4294901760
0.018081717 0.015928682 0.27496094 4294901760
0.8439393 0.96841729 0.92429763 4294901760
0.25038353 0.61402315 0.22635975 4294901760
0.266179 0.81262219 0.41266069 4294901760
0.79628986 0.42151159 0.98310035 4294901760
0.88033313 0.46457028 0.99733537 4294901760
0.78196704 0.56370032 0.57750928 4294901760
0.077913396 0.16544551 0.78196335 4294901760
0.15619735 0.92075413 0.8317861 4294901760
0.4353328 0.70799863 0.61639273 4294901760
0.89119929 0.75058031 0.10521902 4294901760
0.45684353 0.75315791 0.93577659 4294901760
0.014930153 0.86559117 0.91564709 4294901760
0.45572442 0.742046 0.33393022 4294901760
0.74911708 0.31212854 0.043244135 4294901760
0.41582969 0.52973634 0.98954588 4294901760
0.46973789 0.47222787 0.84962916 4294901760
0.2454173 0.81776696 0.042022049 4294901760
0.040339589 0.27941042 0.34797215 4294901760
0.14489402 0.10326385 0.89518124 4294901760
0.94844401 0.88215262 0.89679426 4294901760
0.96567422 0.98395723 0.13939065 4294901760
0.85515285 0.91486061 0.29416963 4294901760
0.48670912 0.40823406 0.2847679 4294901760
0.0038275076 0.06125851 0.20833065 4294901760
0.061867628 0.2339035 0.068503857 4294901760
0.60468578 0.29741126 0.56983328 4294901760
0.014301332 0.25829932 0.68438917 4294901760
0.11446012 0.40387148 0.37373024 4294901760
0.39893481 0.06118783 0.90206176 4294901760
0.083276585 0.052281592 0.22888702 4294901760
0.94301236 0.77148426 0.80595464 4294901760
0.81978035 0.078283995 0.99333286 4294901760
0.86260724 0.43049398 0.22749446 4294901760
0.91263533 0.62956655 0.82839531 4294901760
0.76646817 0.57728338 0.04803285 4294901760
0.04259349 0.24899428 0.90954196 4294901760
0.60637152 0.79523557 0.25160575 4294901760
0.60941344 0.96260142 0.9012754 4294901760
0.87630463 0.22795618 0.93440104 4294901760
0.74377519 0.88037115 0.26890829 4294901760
0.73914862 0.12456899 0.237744 4294901760
0.49553221 0.33115679 0.21852508 4294901760
0.2381158 0.143942 0.2590332 4294901760
0.36116761 0.73635858 0.71547711 4294901760
0.18779784 0.0091467258 0.49027729 4294901760
0.0095099397 0.0058860024 0.073552705 4294901760
0.6980285 0.012468943 0.59151763 4294901760
0.91371173 0.12908776 0.96223456 4294901760
0.72496891 0.1019697 0.30227122 4294901760
0.50494301 0.16311009 0.96056384 4294901760
0.24272443 0.97152781 0.91111648 4294901760
0.76362538 0.917252 0.95071167 4294901760
0.40220541 0.065084495 0.663059 4294901760
0.45279312 0.59160173 0.19082032 4294901760
0.95955414 0.81231183 0.29005536 4294901760
0.80592442 0.2851871 0.037150677 4294901760
0.47923738 0.33753428 0.90345025 4294901760
0.016331125 0.804492 0.39248872 4294901760
0.3259531 0.33259472 0.89698541 4294901760
0.86269921 0.53698796 0.440568 4294901760
0.23293824 0.60416871 0.30540815 4294901760
0.013298392 0.21804538 0.93540126 4294901760
0.11424263 0.32755303 0.22730027 4294901760
0.87192094 0.62765491 0.73698473 4294901760
0.89078242 0.11165266 0.67142642 4294901760
0.20763968 0.016998403 0.93661201 4294901760
0.42221817 0.63202876 0.19535999 4294901760
0.52660787 0.56096619 0.34520334 4294901760
0.4108727 0.018132543 0.012598472 4294901760
0.37943813 0.65837574 0.17915364 4294901760
0.10328243 0.73908103 0.027871035 4294901760
0.56495368 0.72926742 0.009929779 4294901760
0.92953032 0.31097928 0.59900004 4294901760
0.45406714 0.49239269 0.94511205 4294901760
0.22137451 0.7126528 0.52166289 4294901760
0.95914185 0.75799334 0.63281268 4294901760
0.19458811 0.87618518 0.59542441 4294901760
0.055690009 0.14857106 0.59087771 4294901760
0.60045636 0.93627244 0.79913652 4294901760
0.68906403 0.1142854 0.89722961 4294901760
0.59497947 0.0050803069 0.40659919 4294901760
0.12747172 0.39360964 0.3462809 4294901760
0.1721281 0.61731911 0.5182125 4294901760
0.46153501 0.67040956 0.71852338 4294901760
0.2495313 0.68344629 0.52931613 4294901760
0.86554325 0.82376015 0.10744958 4294901760
0.26344219 0.06924735 0.78454602 4294901760
0.76739585 0.89191169 0.71716422 4294901760
0.032531045 0.50505573 0.5923332 4294901760
0.45021084 0.37956363 0.21563827 4294901760
0.055157278 0.70371121 0.3183102 4294901760
0.95652324 0.86711252 0.63602298 4294901760
0.92887408 0.53913045 0.16180187 4294901760
0.051661458 0.66648573 0.47148693 4294901760
0.30020937 0.10229222 0.94872975 4294901760
0.25619259 0.70874298 0.43459848 4294901760
0.5914706 0.76258075 0.41671139 4294901760
0.75699359 0.65892583 0.95283753 4294901760
0.58914793 0.64813364 0.15258326 4294901760
0.13010745 0.71444255 0.53457224 4294901760
0.80794895 0.54314125 0.70954502 4294901760
0.28716809 0.36137289 0.55539727 4294901760
0.98714596 0.79585761 0.45854914 4294901760
0.55864668 0.18267283 0.95444548 4294901760
0.99860817 0.75090075 0.23946296 4294901760
0.36617154 0.1735234 0.39989001 4294901760
0.44113073 0.23130484 0.40837499 4294901760
0.94786215 0.59941822 0.80526614 4294901760
0.79159099 0.015347476 0.52196652 4294901760
0.48124343 0.69489533 0.68582684 4294901760
0.50782043 0.11077987 0.73259991 4294901760
0.16043448 0.41089189 0.13068318 4294901760
0.063618638 0.26598445 0.027652724 4294901760
0.0470265 0.031122204 0.38558114 4294901760
0.68875313 0.92770267 0.5462631 4294901760
0.48173621 0.27507278 0.34107548 4294901760
0.2858696 0.56502855 0.15815319 4294901760
0.80882812 0.012746098 0.27319211 4294901760
0.085113153 0.45246452 0.085611284 4294901760
0.62894422 0.78577274 0.7873928 4294901760
0.99929667 0.38019916 0.83866173 4294901760
0.14128524 0.50169021 0.014406653 4294901760
0.69907975 0.63850278 0.35520816 4294901760
0.28045833 0.55279088 0.39148638 4294901760
0.3933377 0.034450665 0.29224706 4294901760
0.11182132 0.51108003 0.30230403 4294901760
0.38699716 0.62171298 0.053630859 4294901760
0.55425566 0.20735015 0.94534707 4294901760
0.56301045 0.97251838 0.80261111 4294901760
0.53271705 0.67413944 0.19146794 4294901760
0.28770432 0.61526722 0.10724192 4294901760
0.056362107 0.0033370359 0.081933238 4294901760
0.065143615 0.65410453 0.89733458 4294901760
0.18994005 0.028802542 0.37843361 4294901760
0.21456444 0.065829508 0.78702235 4294901760
0.87371582 0.44766656 0.85495013 4294901760
0.95350319 0.34486553 0.1592499 4294901760
0.11215487 0.68744123 0.22084525 4294901760
0.72763139 0.019210951 0.78766286 4294901760
0.90615642 0.40290534 0.22684735 4294901760
0.75276548 0.58450443 0.25573653 4294901760
0.58390921 0.87987775 0.95327455 4294901760
0.27860114 0.41083863 0.55920458 4294901760
0.62000275 0.6428659 0.37772074 4294901760
0.53444082 0.33308637 0.52977812 4294901760
0.33805659 0.91072309 0.4726207 4294901760
0.25628871 0.50065261 0.60325354 4294901760
0.97687602 0.45618194 0.90142196 4294901760
0.83348536 0.83992606 0.47399485 4294901760
0.92821312 0.83073491 0.97419196 4294901760
0.6484561 0.66511571 0.76526505 4294901760
0.4725599 0.51265043 0.17879966 4294901760
0.35347685 0.23975787 0.02063236 4294901760
0.30551589 0.87279022 0.52167714 4294901760
0.4972994 0.8671121 0.050920781 4294901760
0.12159717 0.2719917 0.015250101 4294901760
0.95639777 0.02697506 0.14057603 4294901760
0.62729853 0.44277954 0.93411833 4294901760
0.14424399 0.086509652 0.90298915 4294901760
0.11889213 0.46369433 0.88369823 4294901760
0.24367274 0.37880945 0.69020367 4294901760
0.64525193 0.9257471 0.78960329 4294901760
0.34266442 0.010085205 0.52805465 4294901760
0.31305003 0.13991386 0.8401649 4294901760
0.99469692 0.047249753 0.52357364 4294901760
0.59548026 0.33149886 0.79832703 4294901760
0.15466511 0.074220359 0.84141344 4294901760
0.52298778 0.23691882 0.10414149 4294901760
0.070535317 0.53971887 0.77697325 4294901760
0.8298406 0.72686785 0.44843012 4294901760
0.098596059 0.7568512 0.4622243 4294901760
0.43016294 0.83505934 0.30955076 4294901760
0.489369 0.11819868 0.019790187 4294901760
0.69547868 0.95828098 0.57965124 4294901760
0.14004484 0.77770084 0.46351671 4294901760
0.10134155 0.45823234 0.32130244 4294901760
0.52987951 0.29013202 0.63679093 4294901760
0.48654842 0.11663415 0.3844994 4294901760
0.26606366 0.43215796 0.67616141 4294901760
0.34011734 0.25800708 0.11178243 4294901760
0.61076647 0.3661775 0.55370116 4294901760
0.50066656 0.79696196 0.51290298 4294901760
0.26381075 0.87291467 0.61042297 4294901760
0.1381133 0.81921405 0.62145281 4294901760
0.70086247 0.61104769 0.62502229 4294901760
0.89769751 0.18423329 0.56257492 4294901760
0.03791932 0.059028763 0.16043203 4294901760
0.023033151 0.047427192 0.10563404 4294901760
0.64478773 0.90494651 0.60901803 4294901760
0.47165644 0.42164156 0.91985869 4294901760
0.61143827 0.65952373 0.57213277 4294901760
0.6424349 0.94941062 0.57520288 4294901760
0.57557774 0.69353998 0.30587965 4294901760
0.67568833 0.71349967 0.58923668 4294901760
0.17399333 0.20435767 0.413656 4294901760
0.8259964 0.78833258 0.78523546 4294901760
0.67638969 0.815346 0.04030063 4294901760
0.90208471 0.42049012 0.30675325 4294901760
0.69498712 0.13332327 0.11814839 4294901760
0.40065417 0.27041245 0.52673578 4294901760
0.17708124 0.25394306 0.71953768 4294901760
0.37752134 0.12050822 0.48207512 4294901760
0.95568258 0.018881964 0.34873766 4294901760
0.60955822 0.71701384 0.94972998 4294901760
0.51270545 0.95552564 0.80167168 4294901760
0.94052625 0.10021504 0.23952055 4294901760
0.88703686 0.92570698 0.9891215 4294901760
0.06006927 0.7594319 0.8456105 4294901760
0.40260521 0.61089498 0.86906195 4294901760
0.87671375 0.98555499 0.55934006 4294901760
0.4527359 0.31263497 0.16649018 4294901760
0.46111065 0.69438118 0.31598005 4294901760
0.20083195 0.35301214 0.19663952 4294901760
0.45767176 0.93976951 0.53882468 4294901760
0.86352199 0.43146622 0.11550016 4294901760
0.29066002 0.5901745 0.76714402 4294901760
0.50027412 0.018138468 0.59746867 4294901760
0.22499569 0.69180465 0.65519041 4294901760
0.18097362 0.070018664 0.52433258 4294901760
0.0058080349 0.20269535 0.054306 4294901760
0.13750169 0.035781968 0.55477494 4294901760
0.78202218 0.84860188 0.38253573 4294901760
0.62958831 0.64314771 0.16083401 4294901760
0.31695026 0.0032922886 0.57849729 4294901760
0.73945713 0.94166869 0.55603933 4294901760
0.9131161 0.8449598 0.52854055 4294901760
0.26544914 0.94276911 0.98434627 4294901760
0.43200839 0.94668514 0.89154559 4294901760
0.091340832 0.012613211 0.43392289 4294901760
0.25064102 0.40760061 0.66808003 4294901760
0.15614977 0.79330969 0.056045104 4294901760
0.084119894 0.75669587 0.71987128 4294901760
0.19419102 0.99478889 0.33334258 4294901760
0.022290599 0.12580872 0.45679623 4294901760
0.57895249 0.93886822 0.1654712 4294901760
0.55179405 0.99611467 0.4789702 4294901760
0.69917971 0.83598012 0.85448539 4294901760
0.58796328 0.91337478 0.95491719 4294901760
0.77226233 0.67498952 0.013940523 4294901760
0.43297997 0.010575677 0.54366469 4294901760
0.43227777 0.76298761 0.95656347 4294901760
0.23077738 0.9214443 0.72759563 4294901760
0.33051029 0.80482864 0.12713107 4294901760
0.27112854 0.019340923 0.7470718 4294901760
0.5115056 0.49335855 0.68088359 4294901760
0.50471067 0.91652 0.28477046 4294901760
0.53879189 0.60151124 0.56921721 4294901760
0.0093451822 0.09377408 0.15288395 4294901760
0.015592356 0.35059169 0.82042134 4294901760
0.28376862 0.15841381 0.44203928 4294901760
0.96406007 0.51005983 0.74067563 4294901760
0.75809205 0.25079542 0.4720763 4294901760
0.93416649 0.35426652 0.47821519 4294901760
0.24534696 0.41283405 0.23147596 4294901760
0.7231037 0.23781078 0.080226824 4294901760
0.34932247 0.10768696 0.52012157 4294901760
0.11885455 0.78988308 0.2850922 4294901760
0.89081639 0.73557824 0.2586008 4294901760
0.85996586 0.15389755 0.10276188 4294901760
0.26445881 0.34033924 0.9529075 4294901760
0.76183432 0.40896156 0.15542579 4294901760
0.74135131 0.026340719 0.82821888 4294901760
0.73190743 0.88156527 0.27650476 4294901760
0.01139275 0.29765019 0.27743393 4294901760
0.97716993 0.83868849 0.7399044 4294901760
0.78700072 0.96049994 0.34561414 4294901760
0.19990931 0.22697312 0.37043414 4294901760
0.26135343 0.94287199 0.036142915 4294901760
0.22669396 0.016051736 0.087405965 4294901760
0.23652196 0.62021106 0.22032857 4294901760
0.018106632 0.86364174 0.72057265 4294901760
0.69247764 0.14554891 0.89424521 4294901760
0.022554088 0.23532118 0.53144956 4294901760
0.1840153 0.14479987 0.92036688 4294901760
0.16253679 0.13721557 0.0092342393 4294901760
0.59738863 0.85219407 0.8827824 4294901760
0.81325531 0.14587902 0.59627026 4294901760
0.78454906 0.25341401 0.28103015 4294901760
0.36774635 0.12724714 0.54895109 4294901760
0.34256446 0.81568849 0.71563822 4294901760
0.97703898 0.94290143 0.89341998 4294901760
0.28301591 0.50376594 0.2487987 4294901760
0.80562252 0.17573667 0.77962732 4294901760
0.83492166 0.089655109 0.03012085 4294901760
0.4557254 0.053107593 0.029595762 4294901760
0.62292302 0.053884849 0.22965416 4294901760
0.3433229 0.61940432 0.45719379 4294901760
0.6863122 0.80667239 0.76822549 4294901760
0.79077566 0.38120317 0.76956654 4294901760
0.82554489 0.57428414 0.9181233 4294901760
0.85025102 0.89728558 0.26453796 4294901760
0.9997955 0.34950334 0.30559191 4294901760
0.097800516 0.83586019 0.42379406 4294901760
0.9491092 0.17632702 0.60252881 4294901760
0.18818776 0.54716027 0.11423907 4294901760
0.76729709 0.36431909 0.52892989 4294901760
0.98387986 0.17548305 0.58609366 4294901760
0.6949721 0.10551539 0.77919537 4294901760
0.8067767 0.10579633 0.4118557 4294901760
0.48305923 0.7410894 0.019763054 4294901760
0.43905061 0.074429117 0.28027448 4294901760
0.67952931 0.37568095 0.58510923 4294901760
0.81445056 0.60152125 0.73320395 4294901760
0.51165086 0.87406862 0.89015591 4294901760
0.12468515 0.94045645 0.12014536 4294901760
0.10641745 0.3796837 0.8631618 4294901760
0.2088919 0.32727337 0.48778707 4294901760
0.27810332 0.78697354 0.67679334 4294901760
0.01913695 0.06094816 0.67061216 4294901760
0.42416811 0.8028264 0.42256528 4294901760
0.19602153 0.6583277 0.77979958 4294901760
0.4066484 0.5678364 0.46254444 4294901760
0.27226317 0.46661159 0.38968527 4294901760
0.046050124 0.87928396 0.79750168 4294901760
0.90662783 0.54486555 0.67373157 4294901760
0.06542822 0.7537868 0.47660935 4294901760
0.18734425 0.54076731 0.99670643 4294901760
0.94318753 0.98329836 0.94575328 4294901760
0.51497626 0.66960675 0.26029071 4294901760
0.49193561 0.84415239 0.78606898 4294901760
0.29602101 0.15789767 0.83031666 4294901760
0.47475776 0.6450448 0.52410036 4294901760
0.82811564 0.066105373 0.082131505 4294901760
0.056930512 0.20244507 0.61402863 4294901760
0.0022926261 0.61999726 0.13135207 4294901760
0.38437706 0.27388924 0.44259536 4294901760
0.21723391 0.3816433 0.78234267 4294901760
0.70644468 0.99906939 0.99214411 4294901760
0.092103183 0.96991837 0.69658691 4294901760
0.25603408 0.10263289 0.98267794 4294901760
0.81214911 0.95445955 0.19312114 4294901760
0.029146073 0.39167044 0.16036481 4294901760
0.32563218 0.83089876 0.0029626135 4294901760
0.84865773 0.41164887 0.91390306 4294901760
0.32593778 0.039143741 0.17347121 4294901760
0.11793046 0.32463276 0.39051405 4294901760
0.36447448 0.97408682 0.76079535 4294901760
0.87981439 0.15208781 0.39358985 4294901760
0.22723252 0.26758742 0.085537866 4294901760
0.05317096 0.26114255 0.4912039 4294901760
0.38256595 0.036862586 0.95608354 4294901760
0.9038505 0.72734505 0.39920068 4294901760
0.10999972 0.39599311 0.7939353 4294901760
0.63784188 0.7432788 0.42551106 4294901760
0.52153236 0.83860451 0.61938375 4294901760
0.7337743 0.025614195 0.95340604 4294901760
0.83742011 0.15475282 0.19136861 4294901760
0.83486706 0.36022183 0.7133072 4294901760
0.031383418 0.75219572 0.69907147 4294901760
0.75687629 0.0094549824 0.60811102 4294901760
0.76218575 0.0048436914 0.32735637 4294901760
0.97301733 0.47109243 0.77381158 4294901760
0.26386821 0.74420613 0.72115791 4294901760
0.084508553 0.73220152 0.00080938928 4294901760
0.15138972 0.15856095 0.74916297 4294901760
0.20862399 0.23130514 0.84825706 4294901760
0.39567804 0.76162547 0.35848844 4294901760
0.099700809 0.32735977 0.61133552 4294901760
0.62160647 0.87412769 0.51874673 4294901760
0.17511217 0.0051486362 0.74751073 4294901760
0.35150456 0.072599553 0.16034378 4294901760
0.22500762 0.15647489 0.2914539 4294901760
0.32154793 0.78479302 0.9270792 4294901760
0.54163909 0.78932518 0.88433564 4294901760
0.11007252 0.51343799 0.53867471 4294901760
0.53303397 0.4569698 0.86495322 4294901760
0.40267697 0.9942103 0.094418645 4294901760
0.19440344 0.35220051 0.34054261 4294901760
0.32066587 0.076652169 0.94533354 4294901760
0.81210762 0.59013778 0.43176493 4294901760
0.98574775 0.25651667 0.26409417 4294901760
0.33763155 0.34791335 0.53798312 4294901760
0.69349211 0.3869974 0.0045355679 4294901760
0.3878082 0.36760828 0.42663556 4294901760
0.3953706 0.37036273 0.87838882 4294901760
0.48376411 0.51317036 0.78675699 4294901760
0.42552504 0.57711184 0.99687177 4294901760
0.073449053 0.047662232 0.35384312 4294901760
0.35922822 0.45092741 0.68727845 4294901760
0.44256431 0.44519258 0.95732516 4294901760
0.50290096 0.013559184 0.50196207 4294901760
0.57219213 0.66725665 0.95903093 4294901760
0.083806708 0.6839264 0.51061243 4294901760
0.84629744 0.029355161 0.12454471 4294901760
0.59811783 0.14889379 0.53147274 4294901760
0.98159397 0.63217038 0.43943942 4294901760
0.55138516 0.59075207 0.076463409 4294901760
0.81202954 0.1387324 0.068338856 4294901760
0.29666445 0.35459793 0.67272872 4294901760
0.90225857 0.3298842 0.47985336 4294901760
0.3045412 0.91224539 0.84534431 4294901760
0.63116968 0.10498966 0.51515698 4294901760
0.040976934 0.62815207 0.87199771 4294901760
0.36693156 0.926516 0.86695141 4294901760
0.67376083 0.53261954 0.12705715 4294901760
0.78486133 0.33038703 0.50808454 4294901760
0.58357108 0.26801839 0.37684605 4294901760
0.42943102 0.58118737 0.74303937 4294901760
0.94010419 0.32380214 0.1599371 4294901760
0.68793023 0.10767704 0.095379338 4294901760
0.7367484 0.79954654 0.99022168 4294901760
0.45655808 0.21907952 0.88833302 4294901760
0.32477337 0.56896573 0.45733386 4294901760
0.16221058 0.7160247 0.78269958 4294901760
0.25448802 0.25503907 0.72805464 4294901760
0.39808273 0.29797021 0.07492429 4294901760
0.0082693081 0.57371902 0.10817499 4294901760
0.86964071 0.5037657 0.37235489 4294901760
0.01674475 0.71134073 0.20068084 4294901760
0.74844474 0.3425602 0.91336083 4294901760
0.48810446 0.083241001 0.33396211 4294901760
0.62633997 0.26798123 0.89367318 4294901760
0.49874008 0.013175229 0.67749709 4294901760
0.80920821 0.55216205 0.14389573 4294901760
0.57556129 0.091444559 0.78783989 4294901760
0.8686021 0.59245968 0.26301724 4294901760
0.6563881 0.60120994 0.50574261 4294901760
0.14048803 0.49855515 0.42446232 4294901760
0.73072559 0.84725988 0.16831343 4294901760
0.90399587 0.58925855 0.4543148 4294901760
0.70877159 0.27341881 0.7329374 4294901760
0.4315708 0.15739021 0.91011429 4294901760
0.61685294 0.12300517 0.69438213 4294901760
0.32619768 0.13245727 0.03007891 4294901760
0.65080333 0.59902155 0.69690341 4294901760
0.47740954 0.9826439 0.21606527 4294901760
0.67442387 0.77339506 0.33824709 4294901760
0.30535153 0.48592144 0.2842381 4294901760
0.79095739 0.32825318 0.72784239 4294901760
0.76349306 0.70021904 0.048111569 4294901760
0.69091088 0.024277335 0.24071084 4294901760
0.38692987 0.15447119 0.23873213 4294901760
0.85864216 0.002901894 0.37698355 4294901760
0.64666224 0.34275779 0.77502394 4294901760
0.44834626 0.91152102 0.47607058 4294901760
0.72243738 0.36576986 0.020270227 4294901760
0.53261924 0.87507355 0.90802968 4294901760
0.48294562 0.70337957 0.66442484 4294901760
0.93520075 0.8717975 0.56699055 4294901760
0.80214167 0.15033545 0.43450132 4294901760
0.42341548 0.62581742 0.51711082 4294901760
0.094406746 0.72621906 0.85389185 4294901760
0.89772207 0.2517314 0.9429937 4294901760
0.72735071 0.43837342 0.50610727 4294901760
0.26715097 0.13448477 0.69080216 4294901760
0.39923537 0.03370548 0.48423162 4294901760
0.60162234 0.8734948 0.30203539 4294901760
0.55497295 0.53391856 0.27364707 4294901760
0.30125135 0.20247288 0.69960678 4294901760
0.82360178 0.32964343 0.52676195 4294901760
0.68410403 0.43392709 0.11544419 4294901760
0.87608516 0.47245607 0.3090423 4294901760
0.070676759 0.63205844 0.49634865 4294901760
0.76719791 0.96076947 0.98846585 4294901760
0.40516952 0.41880774 0.17973715 4294901760
0.95732284 0.079919569 0.46840855 4294901760
0.019160811 0.28603333 0.75231791 4294901760
0.064054221 0.49459141 0.69384223 4294901760
0.52346915 0.99983102 0.13295685 4294901760
0.0033710185 0.4936198 0.79963142 4294901760
0.88923097 0.85892779 0.17899211 4294901760
0.057435885 0.3927083 0.92512697 4294901760
0.81354946 0.5025813 0.87668329 4294901760
0.55612499 0.32270426 0.46785894 4294901760
0.324164 0.45581406 0.554766 4294901760
0.60026723 0.63381767 0.3145512 4294901760
0.91857255 0.77621078 0.50378549 4294901760
0.7657665 0.9219048 0.90161127 4294901760
0.54106987 0.99315709 0.49302489 4294901760
0.78165865 0.45893317 0.79250705 4294901760
0.83528513 0.30273271 0.47308788 4294901760
0.99224323 0.22335696 0.93212861 4294901760
0.51988548 0.46613467 0.71246994 4294901760
0.72058702 0.62474656 0.076719008 4294901760
0.3975983 0.82549375 0.28562409 4294901760
0.7376169 0.22813463 0.71610671 4294901760
0.15162578 0.75536358 0.4875063 4294901760
0.51008099 0.84556127 0.40689516 4294901760
0.2877174 0.58752793 0.9544673 4294901760
0.35990459 0.2224181 0.95774251 4294901760
