# .PCD v0.7 - Point Cloud Data file format
VERSION 0.7
FIELDS x y z rgb
SIZE 4 4 4 4
TYPE F F F U
COUNT 1 1 1 1
WIDTH 1087
HEIGHT 1
VIEWPOINT 0 0 0 1 0 0 0
POINTS 1087
DATA ascii
0.10828575 0.68095833 0.60268778 4294901760
0.46975982 0.33864111 0.15316902 4294901760
0.27330023 0.45463783 0.90746862 4294901760
0.010698837 0.10329602 0.72605366 4294901760
0.018503744 0.92701477 0.59831303 4294901760
0.51767981 0.72682434 0.067619495 4294901760
0.87557685 0.49637055 0.47879905 4294901760
0.12354209 0.91395676 0.96949494 4294901760
0.62660241 0.16690037 0.90073264 4294901760
0.17857397 0.32832822 0.056644112 4294901760
0.22043979 0.83687782 0.90357494 4294901760
0.29052997 0.067055695 0.52871996 4294901760
0.05601928 0.41688785 0.35421342 4294901760
0.84496242 0.0032403925 0.24266407 4294901760
0.97001612 0.34647849 0.93343556 4294901760
0.49030051 0.83038545 0.23346692 4294901760
0.010021807 0.50028086 0.12028261 4294901760
0.98884851 0.88364923 0.46525386 4294901760
0.51502591 0.73503727 0.38577306 4294901760
0.67450744 0.95301795 0.11057041 4294901760
0.65625423 0.61285859 0.9089247 4294901760
0.1173078 0.74286169 0.75352579 4294901760
0.25580856 0.5881179 0.65483832 4294901760
0.64576888 0.90046877 0.15632042 4294901760
0.89711297 0.34573501 0.91495138 4294901760
0.70980299 0.69082755 0.78534758 4294901760
0.97302628 0.13911067 0.18754309 4294901760
0.5160231 0.51014501 0.41716984 4294901760
0.8599571 0.56763208 0.67672116 4294901760
0.17678621 0.14952412 0.31682679 4294901760
0.26505429 0.98736852 0.0051303813 4294901760
0.77109557 0.70075721 0.73694104 4294901760
0.54703069 0.93874174 0.263421 4294901760
0.73206598 0.55427247 0.8172133 4294901760
0.56093234 0.33344603 0.84844255 4294901760
0.41731504 0.28353837 0.49073732 4294901760
0.41870329 0.6144039 0.3894161 4294901760
0.50037766 0.30470809 0.81274736 4294901760
0.63388115 0.21132909 0.84858412 4294901760
0.58101374 0.27296814 0.1293235 4294901760
0.8239342 0.38568333 0.96285802 4294901760
0.40044984 0.65295774 0.97715294 4294901760
0.056302536 0.11009239 0.70928919 4294901760
0.40167335 0.27066445 0.39912638 4294901760
0.92093664 0.15199271 0.10479593 4294901760
0.70041472 0.67590094 0.28947839 4294901760
0.33326292 0.41497657 0.99266392 4294901760
0.95722371 0.81085479 0.85546505 4294901760
0.98350143 0.08498884 0.25073266 4294901760
0.56470466 0.13671829 0.18672325 4294901760
0.17628787 0.09677083 0.27645129 4294901760
0.44439861 0.10773022 0.88212365 4294901760
0.035785902 0.60502034 0.45966512 4294901760
0.33345613 0.031224089 0.16570941 4294901760
0.52796185 0.47377667 0.9084475 4294901760
0.84394211 0.6063652 0.5453369 4294901760
0.57982981 0.84915525 0.20206542 4294901760
0.81743884 0.29216889 0.30639365 4294901760
0.012472743 0.64958405 0.19002543 4294901760
0.0031158431 0.26818141 0.19586019 4294901760
0.61496395 0.41222009 0.06806092 4294901760
0.94093293 0.73720777 0.51048672 4294901760
0.14751916 0.34903237 0.5094316 4294901760
0.62532836 0.03193792 0.76673299 4294901760
0.85259849 0.25869605 0.59780931 4294901760
0.30310321 0.84840667 0.10298521 4294901760
0.5002228 0.30777287 0.17523532 4294901760
0.050133694 0.76716781 0.6726476 4294901760
0.36228538 0.21164788 0.0011111336 4294901760
0.51079541 0.95616984 0.36826849 4294901760
0.78710359 0.24507096 0.73243874 4294901760
0.056070663 0.66282374 0.79138798 4294901760
0.54491627 0.84062624 0.72230387 4294901760
0.072784156 0.30758989 0.59860623 4294901760
0.74278557 0.36319914 0.38032493 4294901760
0.057566714 0.21215434 0.51046687 4294901760
0.43266153 0.70016921 0.26964274 4294901760
0.6246736 0.45750767 0.63283515 4294901760
0.19520469 0.22183394 0.32478815 4294901760
0.28826898 0.062598936 0.78217483 4294901760
0.47221395 0.11666831 0.21963233 4294901760
0.93686974 0.78544831 0.10902035 4294901760
0.99611366 0.99949026 0.9602381 4294901760
0.65052235 0.63928717 0.79876155 4294901760
0.19566047 0.81628364 0.81098539 4294901760
0.64773577 0.29544482 0.57704985 4294901760
0.77030307 0.67985994 0.17326288 4294901760
0.89614213 0.7548945 0.90904522 4294901760
0.91468877 0.32964104 0.68133658 4294901760
0.46613824 0.041751027 0.25083819 4294901760
0.81583959 0.67526197 0.90521187 4294901760
0.50173914 0.43044314 0.86336476 4294901760
0.34930897 0.67886049 0.30225816 4294901760
0.50803685 0.16938363 0.85889071 4294901760
0.17513925 0.35838175 0.34354448 4294901760
0.55767781 0.92544216 0.55295473 4294901760
0.61107516 0.012626918 0.49495122 4294901760
0.26780963 0.17862198 0.45627043 4294901760
0.81065309 0.36724022 0.49224544 4294901760
0.79010284 0.7705934 0.68453908 4294901760
0.56735092 0.17830093 0.83235377 4294901760
0.16291128 0.42376158 0.93014663 4294901760
0.064822987 0.9836098 0.67184627 4294901760
0.004404109 0.075418986 0.27348319 4294901760
0.90981793 0.97622865 0.14286631 4294901760
0.38623676 0.91556531 0.54100364 4294901760
0.81353414 0.68642592 0.75524491 4294901760
0.98820776 0.19658548 0.42880771 4294901760
0.97439796 0.9723565 0.026921483 4294901760
0.54688412 0.45289966 0.24835771 4294901760
0.96354389 0.37888044 0.34545648 4294901760
0.76540029 0.89110523 0.17334503 4294901760
0.11270729 0.38981918 0.16182378 4294901760
0.34350199 0.42075205 0.14296314 4294901760
0.44073224 0.25597221 0.80272353 4294901760
0.27078798 0.062681258 0.96100026 4294901760
0.46664405 0.61072987 0.24976097 4294901760
0.089598447 0.60380286 0.037449878 4294901760
0.28495944 0.6536963 0.61104196 4294901760
0.48732084 0.019410502 0.21047445 4294901760
0.44038025 0.20986015 0.52098465 4294901760
0.58361459 0.32355338 0.14966068 4294901760
0.0794117 0.83944148 0.17256224 4294901760
0.54612607 0.36403665 0.88384604 4294901760
0.042415176 0.3985154 0.67289722 4294901760
0.13522775 0.94670647 0.52133948 4294901760
0.91216713 0.30565128 0.51569009 4294901760
0.60994869 0.75727862 0.2582736 4294901760
0.28309992 0.1404171 0.13066904 4294901760
0.4011308 0.73609293 0.10244715 4294901760
0.46407336 0.2103543 0.6705544 4294901760
0.68511641 0.079250455 0.022955012 4294901760
0.69783527 0.92268401 0.78073001 4294901760
0.063377969 0.7231468 0.99234629 4294901760
0.90068823 0.34437069 0.70401394 4294901760
0.52557749 0.36920685 0.016244583 4294901760
0.41764483 0.82562745 0.63458484 4294901760
0.22989838 0.82934052 0.14489925 4294901760
0.25299358 0.83246964 0.13396946 4294901760
0.1283986 0.25303411 0.48596716 4294901760
0.58677912 0.093863487 0.42915487 4294901760
0.32103533 0.70941925 0.95494902 4294901760
0.22264597 0.27325737 0.53123242 4294901760
0.42602786 0.65770936 0.11988684 4294901760
0.32429162 0.21551608 0.86477113 4294901760
0.32152587 0.18186514 0.69719899 4294901760
0.46966049 0.035902232 0.48553967 4294901760
0.050945234 0.3742826 0.20082808 4294901760
0.098152198 0.14541234 0.6462242 4294901760
0.30917865 0.69995952 0.31558743 4294901760
0.29827565 0.39430374 0.90159118 4294901760
0.93193024 0.26087123 0.053085178 4294901760
0.57175839 0.7571516 0.13658339 4294901760
0.63418847 0.064172938 0.99055898 4294901760
0.2305807 0.74770981 0.18316939 4294901760
0.06130575 0.99447072 0.98649853 4294901760
0.6220237 0.65477097 0.18684967 4294901760
0.06087482 0.75333899 0.98890102 4294901760
0.758533 0.020063693 0.84794277 4294901760
0.51776218 0.98238802 0.12700129 4294901760
0.10536322 0.28786778 0.95108539 4294901760
0.040175267 0.81325376 0.4651933 4294901760
0.093391895 0.56379807 0.76913607 4294901760
0.92887092 0.96633559 0.80731362 4294901760
0.82394439 0.23403221 0.61356515 4294901760
0.57610059 0.39618739 0.33415741 4294901760
0.97147602 0.73897761 0.32876492 4294901760
0.11800398 0.5318287 0.52297342 4294901760
0.48158494 0.49532297 0.63559264 4294901760
0.6471023 0.2166633 0.64537424 4294901760
0.075195171 0.64260823 0.17064896 4294901760
0.7953881 0.57709575 0.60433125 4294901760
0.26705992 0.91365665 0.47274405 4294901760
0.15634395 0.77331454 0.65706331 4294901760
0.89634532 0.12334312 0.95447874 4294901760
0.12650962 0.81908369 0.33575657 4294901760
0.46659586 0.59915406 0.40748686 4294901760
0.53093165 0.95212358 0.23449928 4294901760
0.51105332 0.84813613 0.42943069 4294901760
0.75348616 0.59450454 0.49855042 4294901760
0.12878096 0.18059078 0.18123448 4294901760
0.7167322 0.035156049 0.57603085 4294901760
0.82962817 0.57311374 0.098450743 4294901760
0.05219556 0.80854934 0.032740783 4294901760
0.76873451 0.38816205 0.33699661 4294901760
0.7986275 0.077038132 0.61261481 4294901760
0.86335289 0.074462399 0.17449398 4294901760
0.9289884 0.71495312 0.51978081 4294901760
0.16758986 0.97206169 0.44082662 4294901760
0.29312977 0.8935678 0.85929948 4294901760
0.0064923987 0.6912939 0.94117653 4294901760
0.10942571 0.65551585 0.80084765 4294901760
0.75412995 0.8799746 0.19889149 4294901760
0.44646293 0.83381528 0.61484677 4294901760
0.27509111 0.95101315 0.60970128 4294901760
0.81336886 0.36946246 0.7734465 4294901760
0.46792349 0.99860924 0.037774108 4294901760
0.66597551 0.76468068 0.34568822 4294901760
0.50599861 0.98057216 0.37584445 4294901760
0.62866145 0.478641 0.89326638 4294901760
0.70630884 0.12392618 0.10652354 4294901760
0.98781699 0.94472432 0.9558242 4294901760
0.11940074 0.05020668 0.47498766 4294901760
0.043591399 0.1220011 0.58680171 4294901760
0.20382391 0.039727505 0.7433809 4294901760
0.56363076 0.83848894 0.49769592 4294901760
0.33925518 0.60722762 0.71970439 4294901760
0.79462099 0.86581981 0.93626869 4294901760
0.26691854 0.0032759537 0.67473155 4294901760
0.91497654 0.5202744 0.9636054 4294901760
0.87706745 0.086838067 0.6083765 4294901760
0.69211912 0.92064786 0.67941105 4294901760
0.76513869 0.42561829 0.43854961 4294901760
0.97971791 0.10306813 0.33217508 4294901760
0.14109702 0.91621083 0.8169961 4294901760
0.78996509 0.048143614 0.84595197 4294901760
0.92893219 0.54129201 0.89297277 4294901760
0.61120403 0.71953034 0.76448083 4294901760
0.0055453996 0.86432481 0.92441648 4294901760
0.085741967 0.54178739 0.87588459 4294901760
0.48503307 0.34686521 0.65951335 4294901760
0.85268742 0.57355881 0.35308191 4294901760
0.10661454 0.73856509 0.011133071 4294901760
0.16492297 0.69857907 0.65624261 4294901760
0.16355628 0.097012028 0.59063977 4294901760
0.63429046 0.14949909 0.87257254 4294901760
0.73080617 0.21449201 0.8542366 4294901760
0.41525233 0.31565815 0.68219823 4294901760
0.77690792 0.15948752 0.88471431 4294901760
0.65887743 0.45901915 0.83559602 4294901760
0.24948546 0.99306208 0.46464238 4294901760
0.75163597 0.29255137 0.61745673 4294901760
0.61416233 0.76910949 0.021992866 4294901760
0.40060991 0.91621798 0.60154271 4294901760
0.73369086 0.68746543 0.53974909 4294901760
0.0746819 0.91157347 0.19178957 4294901760
0.14787768 0.16345906 0.45662931 4294901760
0.88869393 0.016920611 0.71555138 4294901760
0.6107527 0.24977288 0.59640807 4294901760
0.50631523 0.36236539 0.22807474 4294901760
0.5663054 0.14794603 0.014408391 4294901760
0.53723705 0.27758273 0.79669958 4294901760
0.31731024 0.60236406 0.366972 4294901760
0.69815326 0.58777261 0.40434566 4294901760
0.60615182 0.65644515 0.065494165 4294901760
0.046604332 0.57890409 0.3661114 4294901760
0.65452766 0.2095743 0.98780406 4294901760
0.050109114 0.075843103 0.92062849 4294901760
0.56658816 0.73568302 0.316277 4294901760
0.6030404 0.72114152 0.68000692 4294901760
0.92854309 0.9613018 0.69269276 4294901760
0.61761653 0.081447713 0.46882004 4294901760
0.096387483 0.34101266 0.10311069 4294901760
0.38807476 0.69168746 0.48740816 4294901760
0.38860518 0.1396843 0.97616148 4294901760
0.44024843 0.24175249 0.063835651 4294901760
0.11868511 0.57205284 0.014724858 4294901760
0.83679354 0.89296836 0.68781793 4294901760
0.30825803 0.61666149 0.28879607 4294901760
0.26244709 0.047502004 0.68403876 4294901760
0.20449287 0.88103324 0.94840235 4294901760
0.7611807 0.91772139 0.23523889 4294901760
0.048843428 0.52975148 0.87975878 4294901760
0.13375294 0.40485731 0.78738111 4294901760
0.50405258 0.083804168 0.70581496 4294901760
0.31738386 0.3973901 0.24842024 4294901760
0.91791517 0.69548452 0.76334405 4294901760
0.53482562 0.64762771 0.6584546 4294901760
0.79137701 0.33684167 0.020368185 4294901760
0.32958311 0.52807206 0.93499464 4294901760
0.63244438 0.74265856 0.25108287 4294901760
0.23753251 0.57521993 0.31144974 4294901760
0.86365622 0.18118477 0.90617579 4294901760
0.67585576 0.80146098 0.42930964 4294901760
0.75011867 0.044113141 0.79798847 4294901760
0.67099988 0.43681988 0.22819205 4294901760
0.38387027 0.66694552 0.70161653 4294901760
0.50909394 0.94298327 0.13940139 4294901760
0.95204383 0.87136072 0.25529251 4294901760
0.74896598 0.23203139 0.85870284 4294901760
0.67687762 0.46507689 0.76667154 4294901760
0.9126721 0.61625892 0.65467244 4294901760
0.6688807 0.4364557 0.61275703 4294901760
0.31769836 0.75617594 0.68523067 4294901760
0.73246461 0.72074687 0.69260615 4294901760
0.79905277 0.0032437588 0.12172277 4294901760
0.73083502 0.17468005 0.78369367 4294901760
0.11456267 0.061511982 0.14199245 4294901760
0.12999031 0.31192806 0.76718932 4294901760
0.19604819 0.58179367 0.0077315904 4294901760
0.29118791 0.20021887 0.31297889 4294901760
0.078689143 0.18846503 0.20410308 4294901760
0.14826833 0.62866431 0.92354715 4294901760
0.26998514 0.43532145 0.60137558 4294901760
0.93848956 0.88532346 0.69712162 4294901760
0.075777873 0.64058685 0.2434887 4294901760
0.99092394 0.42363596 0.88049674 4294901760
0.82445246 0.24187581 0.99699926 4294901760
0.56880331 0.8779965 0.73290718 4294901760
0.61964583 0.074517474 0.45364559 4294901760
0.067969568 0.39058566 0.019084478 4294901760
0.40881789 0.94009548 0.85226923 4294901760
0.076823264 0.79059231 0.93107772 4294901760
0.93544519 0.84302992 0.34757361 4294901760
0.19812836 0.99024332 0.18977927 4294901760
0.8246001 0.82428479 0.54570466 4294901760
0.44549924 0.28685302 0.3856155 4294901760
0.97089583 0.30411571 0.010317527 4294901760
0.99218655 0.84009296 0.55763525 4294901760
0.37583584 0.35236272 0.82657903 4294901760
0.44831711 0.22794248 0.87579507 4294901760
0.14831892 0.38112918 0.49640077 4294901760
0.92269021 0.17683446 0.012010382 4294901760
0.081485182 0.17347243 0.32484066 4294901760
0.91896588 0.63537425 0.046539508 4294901760
0.01195088 0.77766669 0.6463415 4294901760
0.065042891 0.43285447 0.15503691 4294901760
0.93356425 0.89428717 0.29391912 4294901760
0.6724025 0.83760494 0.071656756 4294901760
0.97511029 0.44937015 0.12541185 4294901760
0.80231088 0.59798789 0.88725245 4294901760
0.33731061 0.87690866 0.32459038 4294901760
0.8373034 0.23918267 0.69577259 4294901760
0.12495257 0.45572767 0.68122149 4294901760
0.76500154 0.76979572 0.67662013 4294901760
0.71223694 0.28815839 0.31289002 4294901760
0.58281136 0.29731327 0.85853016 4294901760
0.70409256 0.034487966 0.80494201 4294901760
0.954822 0.43540049 0.57067102 4294901760
0.51292777 0.90150023 0.83866882 4294901760
0.73224008 0.91860032 0.06776613 4294901760
0.99892753 0.64587253 0.078547888 4294901760
0.88892674 0.2997086 0.60758597 4294901760
0.73952901 0.99935788 0.95089191 4294901760
0.011414532 0.25124234 0.87123066 4294901760
0.68478096 0.32264915 0.4508318 4294901760
0.94089729 0.080715738 0.88428134 4294901760
0.11633488 0.49310836 0.32153505 4294901760
0.63886791 0.057835288 0.11009768 4294901760
0.49301976 0.36380678 0.9662658 4294901760
0.68645692 0.3665486 0.88501847 4294901760
0.076741964 0.57718956 0.95743185 4294901760
0.11000422 0.13516948 0.084077224 4294901760
0.20670345 0.15244991 0.22766078 4294901760
0.88188618 0.1939836 0.11199333 4294901760
0.83357942 0.37270999 0.3247968 4294901760
0.26996607 0.88366365 0.49287072 4294901760
0.021949289 0.011002055 0.067294464 4294901760
0.56609017 0.96810538 0.82311058 4294901760
0.93494791 0.21340689 0.31059706 4294901760
0.90611333 0.90628332 0.25387353 4294901760
0.99500394 0.56458932 0.56617045 4294901760
0.35906872 0.67529708 0.27200934 4294901760
0.13402165 0.76322967 0.76067615 4294901760
0.89770067 0.053594787 0.76144195 4294901760
0.11374114 0.028978398 0.9814226 4294901760
0.46294469 0.87879443 0.4592855 4294901760
0.013716497 0.65295923 0.65300465 4294901760
0.74420774 0.53987283 0.64780021 4294901760
0.7740972 0.66753834 0.31413114 4294901760
0.40007883 0.36927861 0.81018722 4294901760
0.15313135 0.6107989 0.34375638 4294901760
0.83585221 0.74306619 0.98293382 4294901760
0.15901071 0.40105999 0.90535516 4294901760
0.20267078 0.76113003 0.83003414 4294901760
0.50732076 0.74584228 0.74158376 4294901760
0.047424857 0.0089706955 0.10406386 4294901760
0.9543916 0.11103308 0.44437268 4294901760
0.42355144 0.50220346 0.48410127 4294901760
0.98588353 0.075603329 0.8674767 4294901760
0.9364844 0.30938387 0.85565257 4294901760
0.12636916 0.42815888 0.86266077 4294901760
0.20319304 0.59478658 0.48278081 4294901760
0.027743861 0.64687145 0.59649777 4294901760
0.18274067 0.67378759 0.35749418 4294901760
0.7991634 0.135685 0.85553914 4294901760
0.92360091 0.1309319 0.53992194 4294901760
0.95352459 0.15769547 0.18422648 4294901760
0.71313369 0.51473904 0.46168303 4294901760
0.30147135 0.17554821 0.17977776 4294901760
0.74287486 0.6206066 0.48793444 4294901760
0.93748951 0.35229027 0.93641561 4294901760
0.13624978 0.23046824 0.94816977 4294901760
0.90472585 0.32544336 0.18883029 4294901760
0.67653805 0.44838691 0.15783851 4294901760
0.81134897 0.85777491 0.040604603 4294901760
0.42500454 0.015246743 0.4219501 4294901760
0.070475854 0.79315746 0.47731778 4294901760
0.27618003 0.73163211 0.94541281 4294901760
0.84991109 0.062354188 0.77230948 4294901760
0.50804204 0.95628208 0.59141284 4294901760
0.62981671 0.70942593 0.31721747 4294901760
0.98102385 0.70328331 0.17448762 4294901760
0.90439504 0.52180392 0.9408859 4294901760
0.062397607 0.5390228 0.6162383 4294901760
0.10739513 0.5018959 0.050732151 4294901760
0.58789372 0.17310295 0.56624448 4294901760
0.49017721 0.90150982 0.41360241 4294901760
0.16054849 0.63629359 0.92853528 4294901760
0.067601576 0.7489922 0.88932943 4294901760
0.15072608 0.76991743 0.71788293 4294901760
0.97387856 0.29505152 0.96933544 4294901760
0.17951356 0.97883433 0.40511492 4294901760
0.41960829 0.9673599 0.21453206 4294901760
0.20450141 0.18057893 0.62046975 4294901760
0.015222765 0.40448961 0.91013092 4294901760
0.2777122 0.68713152 0.070213668 4294901760
0.876598 0.65690404 0.77862191 4294901760
0.092054263 0.88941079 0.57158142 4294901760
0.50288051 0.31181851 0.86644882 4294901760
0.37394878 0.69859552 0.98633885 4294901760
0.89484358 0.4147155 0.43385947 4294901760
0.048236944 0.16133568 0.021713315 4294901760
0.38102412 0.95409471 0.021623475 4294901760
0.89686292 0.9641459 0.89549732 4294901760
0.91614896 0.52126133 0.66741472 4294901760
0.39928538 0.012154738 0.49246341 4294901760
0.27231628 0.2765933 0.44095007 4294901760
0.59319466 0.70813596 0.23372355 4294901760
0.8342796 0.70803154 0.99973792 4294901760
0.8986674 0.94860053 0.74573457 4294901760
0.68285841 0.028200418 0.97452909 4294901760
0.3863965 0.43994504 0.9419769 4294901760
0.19905664 0.45385426 0.86411142 4294901760
0.65986961 0.57905406 0.87823409 4294901760
0.20419909 0.82390982 0.73679036 4294901760
0.31660104 0.6711089 0.54643989 4294901760
0.66323256 0.78920346 0.18688433 4294901760
0.43330103 0.52180016 0.34471473 4294901760
0.70394987 0.64221978 0.87113857 4294901760
0.61301637 0.5816586 0.2586689 4294901760
0.094421357 0.54957801 0.028297765 4294901760
0.781479 0.073311195 0.19682267 4294901760
0.21469982 0.96294588 0.28966793 4294901760
0.2142639 0.73031658 0.93328756 4294901760
0.062345158 0.33834392 0.40880206 4294901760
0.16116096 0.77620894 0.67892617 4294901760
0.052887306 0.78655005 0.24683124 4294901760
0.28036356 0.92388499 0.39631581 4294901760
0.50926226 0.1900385 0.87201321 4294901760
0.33057281 0.31228724 0.18022135 4294901760
0.15461884 0.066625342 0.14995874 4294901760
0.3032141 0.028856728 0.61575705 4294901760
0.36990458 0.67613834 0.6459102 4294901760
0.37501296 0.031985216 0.24687709 4294901760
0.6392917 0.33706588 0.15003546 4294901760
0.60919935 0.28456655 0.21690518 4294901760
0.34836069 0.8008604 0.7559256 4294901760
0.94756943 0.55569321 0.070088819 4294901760
0.21406457 0.78479928 0.43820128 4294901760
0.64936495 0.38448775 0.39797908 4294901760
0.49100679 0.014128139 0.85582983 4294901760
0.43464389 0.19603768 0.27501541 4294901760
0.29233003 0.13678662 0.94379848 4294901760
0.67458141 0.50770336 0.11915309 4294901760
0.036473792 0.26394168 0.96124983 4294901760
0.13363568 0.45487154 0.24335876 4294901760
0.13775484 0.39073786 0.1234614 4294901760
0.97607392 0.97499913 0.67469895 4294901760
0.61123729 0.081103988 0.54695576 4294901760
0.41930547 0.49119481 0.79078674 4294901760
0.77890587 0.81221962 0.029550679 4294901760
0.083961241 0.55314201 0.827057 4294901760
0.15289801 0.14359482 0.83748168 4294901760
0.20583679 0.84341651 0.47468361 4294901760
0.87901986 0.71467113 0.52481216 4294901760
0.23782948 0.54211962 0.7490775 4294901760
0.73058707 0.2071649 0.77521533 4294901760
0.35368207 0.85007441 0.49990466 4294901760
0.27805752 0.31389463 0.59441483 4294901760
0.12731393 0.64079076 0.53896713 4294901760
0.38542452 0.12708178 0.87019825 4294901760
0.97692084 0.49772978 0.057417203 4294901760
0.099179246 0.81514424 0.97743934 4294901760
0.77661526 0.47902691 0.34641129 4294901760
0.47100374 0.071339257 0.21460615 4294901760
0.19676876 0.72129273 0.73071915 4294901760
0.99447501 0.655586 0.61730617 4294901760
0.39244276 0.55275536 0.83528739 4294901760
0.66699356 0.02354458 0.5069015 4294901760
0.62597668 0.08546485 0.85730946 4294901760
0.5031603 0.58629596 0.066837981 4294901760
0.98923826 0.1856371 0.079584964 4294901760
0.80207402 0.39319479 0.1006363 4294901760
0.2351668 0.53603292 0.7615568 4294901760
0.15181187 0.82168293 0.074321352 4294901760
0.70806783 0.56666958 0.97916472 4294901760
0.25178894 0.7292673 0.88532078 4294901760
0.472482 0.56787026 0.17582345 4294901760
0.85228038 0.90195608 0.1877653 4294901760
0.41743326 0.080025159 0.92932093 4294901760
0.78866875 0.20370713 0.062917456 4294901760
0.84261709 0.13841707 0.57442296 4294901760
0.29405767 0.97948039 0.81514519 4294901760
0.2528128 0.80502599 0.60275656 4294901760
0.025291653 0.25707135 0.27454367 4294901760
0.32678875 0.06519343 0.25170565 4294901760
0.9101249 0.3361139 0.98429126 4294901760
0.55657917 0.30894035 0.51058513 4294901760
0.17731081 0.40976012 0.12767538 4294901760
0.54031408 0.57152128 0.84370428 4294901760
0.32411006 0.44717789 0.0041393787 4294901760
0.68689692 0.59800005 0.13494885 4294901760
0.26662201 0.96047038 0.59512919 4294901760
0.0672938 0.046100009 0.59228915 4294901760
0.45910209 0.20219846 0.86348635 4294901760
0.23221822 0.90430677 0.23993622 4294901760
0.69403911 0.29873949 0.45916265 4294901760
0.76750928 0.49565235 0.032237571 4294901760
0.57705432 0.016806297 0.53820479 4294901760
0.47750419 0.93647927 0.43454802 4294901760
0.10261635 0.85165471 0.67159247 4294901760
0.49417561 0.7625345 0.10213102 4294901760
0.24111237 0.41723445 0.62118793 4294901760
0.2349959 0.62273765 0.63357931 4294901760
0.88090712 0.84214503 0.27963352 4294901760
0.73598528 0.52751929 0.15527904 4294901760
0.7957719 0.73017687 0.063926682 4294901760
0.25191545 0.43805358 0.37963402 4294901760
0.34633204 0.17968665 0.93194902 4294901760
0.72478026 0.54007959 0.79632336 4294901760
0.94384933 0.019627143 0.56387854 4294901760
0.068906061 0.68990231 0.88750535 4294901760
0.34923279 0.68175209 0.1712466 4294901760
0.92214745 0.79810143 0.9986347 4294901760
0.56499326 0.87395567 0.93165272 4294901760
0.36107194 0.20568447 0.70598859 4294901760
0.36669397 0.39692172 0.82244951 4294901760
0.99489725 0.31612226 0.93621248 4294901760
0.30615526 0.25734407 0.61940646 4294901760
0.57446504 0.74111086 0.83597791 4294901760
0.019025534 0.34875175 0.42659307 4294901760
0.3273488 0.89094853 0.92624569 4294901760
0.061936695 0.33096716 0.93157107 4294901760
0.29484269 0.97796357 0.46605751 4294901760
0.15765452 0.29879144 0.045366138 4294901760
0.7539494 0.46492663 0.49861011 4294901760
0.47375414 0.9806909 0.63016254 4294901760
0.35630938 0.7081629 0.031165134 4294901760
0.13061708 0.66383344 0.098434292 4294901760
0.26288867 0.066070214 0.23333624 4294901760
0.17056392 0.26428753 0.15128742 4294901760
0.16267739 0.10316426 0.69010258 4294901760
0.11209171 0.11569179 0.21753894 4294901760
0.060093664 0.4169988 0.15800288 4294901760
0.62496364 0.87741363 0.51028943 4294901760
0.7424764 0.82076162 0.64307296 4294901760
0.98472804 0.67975932 0.9679777 4294901760
0.41297901 0.97387105 0.99873453 4294901760
0.28895289 0.99993831 0.95461935 4294901760
0.88731486 0.23143107 0.54499578 4294901760
0.3153775 0.68043739 0.97378564 4294901760
0.003156309 0.12594165 0.29524544 4294901760
0.84495533 0.2230916 0.81536961 4294901760
0.26802567 0.45847431 0.08621408 4294901760
0.67999184 0.36694139 0.38883111 4294901760
0.4871636 0.7066468 0.35247591 4294901760
0.18328805 0.98147732 0.065489672 4294901760
0.19979417 0.49379513 0.88157851 4294901760
0.53754473 0.2714763 0.5147137 4294901760
0.75875616 0.90220547 0.88126171 4294901760
0.10027005 0.89913833 0.058320604 4294901760
0.024973856 0.84901357 0.58604014 4294901760
0.20781758 0.46838945 0.076130748 4294901760
0.18159954 0.6583699 0.68212968 4294901760
0.94330215 0.070989005 0.4040772 4294901760
0.85252988 0.35051957 0.66106498 4294901760
0.43064794 0.03367443 0.96414852 4294901760
0.82540947 0.90267658 0.14575888 4294901760
0.92745364 0.22585684 0.38626957 4294901760
0.10645154 0.66381884 0.99757248 4294901760
0.63281983 0.74686331 0.2364184 4294901760
0.58255041 0.99337262 0.89182526 4294901760
0.60623085 0.1510212 0.11802681 4294901760
0.061797123 0.37797743 0.32314524 4294901760
0.51380497 0.34752843 0.91317517 4294901760
0.87006432 0.77894229 0.82363588 4294901760
0.72751665 0.48247465 0.21539558 4294901760
0.43274432 0.61855888 0.25403497 4294901760
0.37452635 0.79857445 0.55746925 4294901760
0.18864131 0.037302766 0.88294518 4294901760
0.32770479 0.10046031 0.45664445 4294901760
0.015590084 0.26373208 0.48225212 4294901760
0.079650968 0.56103826 0.5520227 4294901760
0.60745329 0.85949397 0.62156737 4294901760
0.25504383 0.187259 0.49773303 4294901760
0.83853102 0.995498 0.54528731 4294901760
0.52927643 0.94443083 0.47335145 4294901760
0.66901726 0.39163664 0.52916592 4294901760
0.55006778 0.86887574 0.8255952 4294901760
0.75554663 0.29576766 0.44544768 4294901760
0.68650633 0.35564962 0.35917386 4294901760
0.70348608 0.38745886 0.31278741 4294901760
0.26227939 0.85375065 0.0165384 4294901760
0.21094455 0.23818721 0.86529964 4294901760
0.57351893 0.95380116 0.63298452 4294901760
0.10843056 0.50342029 0.86020136 4294901760
0.39418364 0.35197446 0.50364864 4294901760
0.044256717 0.47050974 0.37816757 4294901760
0.83369166 0.87254459 0.83400434 4294901760
0.20223789 0.7978515 0.21312228 4294901760
0.090711527 0.89864576 0.01416246 4294901760
0.84398615 0.02514331 0.073756091 4294901760
0.94154292 0.13498619 0.0026716404 4294901760
0.84856844 0.38335741 0.70694709 4294901760
0.052154925 0.7330842 0.76835436 4294901760
0.18375635 0.46372288 0.22598284 4294901760
0.91252053 0.66448212 0.30684081 4294901760
0.49974239 0.22252674 0.89621282 4294901760
0.90018505 0.585208 0.86968088 4294901760
0.13185255 0.027502727 0.03205828 4294901760
0.9317683 0.49826777 0.17018156 4294901760
0.11116827 0.16603728 0.53510416 4294901760
0.82348818 0.62712526 0.49140996 4294901760
0.012483706 0.68457502 0.32297155 4294901760
0.83823985 0.24067815 0.96836352 4294901760
0.25806537 0.065434545 0.87960017 4294901760
0.83810055 0.42348912 0.63416153 4294901760
0.48911807 0.53634566 0.64075601 4294901760
0.91401482 0.23911488 0.54076779 4294901760
0.039200757 0.094521701 0.11176856 4294901760
0.94186461 0.6525203 0.46518376 4294901760
0.50462258 0.20177419 0.65742564 4294901760
0.77437586 0.67018718 0.145464 4294901760
0.88250548 0.64003384 0.30953357 4294901760
0.025942102 0.9407742 0.35551429 4294901760
0.97234529 0.07271602 0.34296349 4294901760
0.59105015 0.60869902 0.77039528 4294901760
0.24584596 0.70581609 0.71422839 4294901760
0.93748367 0.22736707 0.75432193 4294901760
0.64519471 0.86971474 0.666363 4294901760
0.48338816 0.013392787 0.23903772 4294901760
0.95702261 0.76521826 0.66268098 4294901760
0.76846564 0.060070205 0.93466067 4294901760
0.0051442445 0.69539219 0.39027891 4294901760
0.99124235 0.4772017 0.19477895 4294901760
0.50148815 0.22628029 0.053798236 4294901760
0.12846237 0.76616085 0.64402771 4294901760
0.59829777 0.36111653 0.60991001 4294901760
0.64306265 0.67216522 0.87952018 4294901760
0.37849984 0.77970612 0.75609809 4294901760
0.39282259 0.22952135 0.67346913 4294901760
0.94530928 0.6971364 0.63306928 4294901760
0.47800022 0.83903533 0.15544517 4294901760
0.59414363 0.68069649 0.89182585 4294901760
0.89247161 0.44058073 0.057958614 4294901760
0.85385144 0.76153302 0.85155112 4294901760
0.024266727 0.17998977 0.27207103 4294901760
0.66881955 0.69917041 0.3271136 4294901760
0.51658422 0.93748748 0.15989091 4294901760
0.11323661 0.81747037 0.78182578 4294901760
0.27394998 0.69574779 0.5988996 4294901760
0.38139486 0.32158372 0.23358701 4294901760
0.93720615 0.57415771 0.92158872 4294901760
0.40518987 0.42007059 0.45096138 4294901760
0.28763324 0.62715542 0.59538937 4294901760
0.085634083 0.63449419 0.49730229 4294901760
0.67815471 0.15513122 0.621701 4294901760
0.5206123 0.93437606 0.69220763 4294901760
0.90551728 0.89565384 0.86068833 4294901760
0.28909686 0.78803056 0.61871499 4294901760
0.3909173 0.6100015 0.7189151 4294901760
0.00024709699 0.92106611 0.7599802 4294901760
0.27416474 0.35133559 0.9418543 4294901760
0.26358166 0.092809729 0.18280895 4294901760
0.78148943 0.74722594 0.96418083 4294901760
0.67456186 0.33220184 0.47199094 4294901760
0.20455214 0.78254884 0.71758747 4294901760
0.31013998 0.63870752 0.71641535 4294901760
0.62094176 0.10409354 0.7861073 4294901760
0.78861147 0.79722404 0.67199475 4294901760
0.53415388 0.99603361 0.63558912 4294901760
0.27159777 0.35334378 0.57268888 4294901760
0.956824 0.8409282 0.41061485 4294901760
0.5090673 0.65613699 0.67385274 4294901760
0.31566706 0.13862671 0.44175157 4294901760
0.69964653 0.3875339 0.90319079 4294901760
0.97781199 0.54289186 0.98370385 4294901760
0.96079212 0.013994008 0.82053 4294901760
0.0059992713 0.61123055 0.13596901 4294901760
0.38988546 0.16343272 0.2860229 4294901760
0.49908105 0.1849395 0.37470683 4294901760
0.43753308 0.22929855 0.44470775 4294901760
0.92660701 0.064014778 0.10515652 4294901760
0.35174733 0.55346274 0.28996718 4294901760
0.033992685 0.095260642 0.58043092 4294901760
0.48382598 0.61220872 0.78491914 4294901760
0.55282724 0.45354179 0.38744524 4294901760
0.18064384 0.43759772 0.29086784 4294901760
0.25299042 0.97737485 0.73329365 4294901760
0.8096413 0.25511613 0.91716695 4294901760
0.66703284 0.074492335 0.79543298 4294901760
0.99160445 0.40164068 0.17690443 4294901760
0.98798722 0.65419412 0.95367777 4294901760
0.28568253 0.38367322 0.21905057 4294901760
0.4133051 0.78744119 0.75031894 4294901760
0.26300952 0.67019969 0.71582198 4294901760
0.82311368 0.68544841 0.54389966 4294901760
0.55255353 0.079352498 0.78181964 4294901760
0.49098468 0.7822246 0.2187576 4294901760
0.28690654 0.64617556 0.33072355 4294901760
0.26017016 0.2839689 0.01311823 4294901760
0.24814357 0.38239858 0.48422423 4294901760
0.023703551 0.44908288 0.74996364 4294901760
0.96654075 0.8670916 0.17384318 4294901760
0.55773973 0.86447728 0.94314837 4294901760
0.85467064 0.61051154 0.13479565 4294901760
0.36929318 0.74508184 0.6809634 4294901760
0.36987615 0.94975269 0.31315067 4294901760
0.85064244 0.15481755 0.92779839 4294901760
0.6595028 0.75476289 0.92973173 4294901760
0.61509621 0.68612313 0.18914278 4294901760
0.66245419 0.76909477 0.98061395 4294901760
0.95868659 0.26117563 0.63255703 4294901760
0.79516256 0.85907519 0.48289531 4294901760
0.090772338 0.64774424 0.73607016 4294901760
0.43508726 0.17721003 0.25865716 4294901760
0.18345761 0.27238759 0.88977683 4294901760
0.92326939 0.20576574 0.93065089 4294901760
0.78629977 0.26194379 0.73194975 4294901760
0.29972792 0.74352098 0.86397016 4294901760
0.8677963 0.74020827 0.1302579 4294901760
0.0025082515 0.3484745 0.87152714 4294901760
0.77918571 0.39124587 0.2489025 4294901760
0.67280269 0.21506651 0.73952556 4294901760
0.2635611 0.15662417 0.52563119 4294901760
0.86070293 0.10660246 0.65465736 4294901760
0.48640782 0.21653016 0.13681635 4294901760
0.053702123 0.51104063 0.45109779 4294901760
0.92792815 0.49261317 0.14777978 4294901760
0.78255343 0.46084759 0.67639303 4294901760
0.95702863 0.7626965 0.96825856 4294901760
0.56620896 0.74762964 0.91542685 4294901760
0.063700564 0.23527999 0.96027887 4294901760
0.57483429 0.44883439 0.57822484 4294901760
0.57711256 0.61757308 0.16554284 4294901760
0.41176251 0.38396028 0.21480221 4294901760
0.087327577 0.1207329 0.64937139 4294901760
0.08200781 0.78640944 0.23199652 4294901760
0.41732773 0.94764853 0.59489208 4294901760
0.046863787 0.29880109 0.68933725 4294901760
0.69756514 0.4507502 0.76546842 4294901760
0.28981993 0.43440601 0.36829525 4294901760
0.37447563 0.23881972 0.77121758 4294901760
0.61916143 0.45260054 0.20037442 4294901760
0.85451573 0.24554703 0.62298977 4294901760
0.52618504 0.40093714 0.36104783 4294901760
0.78717977 0.94795394 0.75449473 4294901760
0.21497373 0.27158096 0.55167401 4294901760
0.69161749 0.64312577 0.40831167 4294901760
0.59191149 0.10019357 0.043163568 4294901760
0.65589589 0.57970464 0.90553337 4294901760
0.11625215 0.21464577 0.4264735 4294901760
0.94715792 0.31251535 0.80382591 4294901760
0.73776853 0.28107232 0.043744437 4294901760
0.84069562 0.38069913 0.44009903 4294901760
0.79368395 0.81553411 0.62266791 4294901760
0.13292184 0.71320653 0.73868066 4294901760
0.29110366 0.33761072 0.40681481 4294901760
0.14862137 0.70458919 0.54511631 4294901760
0.027986687 0.61544877 0.53709149 4294901760
0.38891828 0.27575964 0.74760294 4294901760
0.7070021 0.20205915 0.95733154 4294901760
0.80858254 0.62671739 0.63584858 4294901760
0.58042014 0.65959716 0.74144077 4294901760
0.35508198 0.64022958 0.60061711 4294901760
0.035783932 0.86127079 0.70105648 4294901760
0.8219189 0.21004233 0.23531327 4294901760
0.88268203 0.48996475 0.9088065 4294901760
0.37201309 0.92392737 0.10738359 4294901760
0.84283799 0.3387588 0.87591356 4294901760
0.55341691 0.61327678 0.084176235 4294901760
0.72675222 0.59113401 0.62417066 4294901760
0.0088196797 0.82836765 0.68842995 4294901760
0.93763781 0.24404587 0.41522032 4294901760
0.50673348 0.24616636 0.41063726 4294901760
0.88161504 0.14737399 0.79461259 4294901760
0.70396435 0.72910941 0.84517664 4294901760
0.20062323 0.56457925 0.52647209 4294901760
0.48203912 0.013802173 0.48988184 4294901760
0.42172453 0.68730086 0.88880873 4294901760
0.66617739 0.97106582 0.8572197 4294901760
0.28795543 0.11532366 0.52139181 4294901760
0.97807342 0.34076378 0.77083898 4294901760
0.099631511 0.65095562 0.79707557 4294901760
0.69597548 0.20923692 0.50049943 4294901760
0.31168619 0.69813675 0.25724772 4294901760
0.27297276 0.41326541 0.87702233 4294901760
0.059346441 0.18981969 0.88147527 4294901760
0.858464 0.13282253 0.19814567 4294901760
0.84069353 0.33015722 0.20879489 4294901760
0.51453519 0.475564 0.64450127 4294901760
0.19293308 0.42798266 0.3343108 4294901760
0.29488596 0.39649621 0.034204986 4294901760
0.36392629 0.077733569 0.93941474 4294901760
0.75861168 0.46433413 0.81813532 4294901760
0.40388256 0.71394664 0.85713524 4294901760
0.021376349 0.95670414 0.53779137 4294901760
0.4125118 0.56841463 0.80146819 4294901760
0.97935069 0.24195999 0.77686846 4294901760
0.73234671 0.0091069676 0.44668746 4294901760
0.67261446 0.39118063 0.90882367 4294901760
0.57302648 0.17292447 0.2946268 4294901760
0.93164051 0.89561564 0.015876886 4294901760
0.11666249 0.42833444 0.076317422 4294901760
0.37908903 0.80071145 0.0011698528 4294901760
0.80035591 0.062755577 0.037282217 4294901760
0.17452757 0.046513133 0.80252427 4294901760
0.19758955 0.0049229916 0.77179807 4294901760
0.2201695 0.2366441 0.16421244 4294901760
0.77448416 0.48075157 0.56629896 4294901760
0.40863231 0.97021317 0.49410871 4294901760
0.80103809 0.52857238 0.67004794 4294901760
0.087601386 0.91354102 0.5535025 4294901760
0.82928681 0.55546194 0.61565596 4294901760
0.28074116 0.62988144 0.96453696 4294901760
0.87336159 0.61767906 0.33780944 4294901760
0.14050193 0.49514258 0.92866921 4294901760
0.7196812 0.18952516 0.51819313 4294901760
0.40456912 0.93307567 0.41109896 4294901760
0.029373687 0.37746903 0.9746986 4294901760
0.41580138 0.77553588 0.94636756 4294901760
0.020481076 0.72165447 0.31018731 4294901760
0.69172752 0.056730688 0.5911845 4294901760
0.70746535 0.84254867 0.69930989 4294901760
0.3194598 0.33756143 0.29416177 4294901760
0.59395504 0.99048144 0.044376779 4294901760
0.040852766 0.32285857 0.039878644 4294901760
0.9136228 0.41467491 0.41622579 4294901760
0.94609237 0.32062936 0.54737628 4294901760
0.082153901 0.62896395 0.98487711 4294901760
0.059982974 0.68402302 0.39536566 4294901760
0.53538793 0.62951398 0.68967903 4294901760
0.62692535 0.06414903 0.9572798 4294901760
0.8815679 0.15459397 0.59906119 4294901760
0.59731233 0.54562849 0.67306405 4294901760
0.85431421 0.01762842 0.11888964 4294901760
0.92986536 0.31236938 0.64764851 4294901760
0.48335484 0.60949159 0.20745197 4294901760
0.069961995 0.51370031 0.66991758 4294901760
0.50865936 0.11404925 0.5546543 4294901760
0.47863224 0.87834036 0.13090198 4294901760
0.83255857 0.83808148 0.17031239 4294901760
0.35311794 0.23824374 0.90468162 4294901760
0.75243157 0.142681 0.41883898 4294901760
0.82825762 0.87351644 0.66829252 4294901760
0.62351155 0.47689754 0.90416729 4294901760
0.38411531 0.61548513 0.13919623 4294901760
0.22678603 0.82740527 0.23937631 4294901760
0.35596374 0.86039251 0.05758987 4294901760
0.11017555 0.30230957 0.20640515 4294901760
0.10063905 0.85058635 0.89231992 4294901760
0.0074765221 0.044594586 0.78385204 4294901760
0.19447255 0.43312961 0.023755617 4294901760
0.71652275 0.28049794 0.07297051 4294901760
0.72953379 0.87000722 0.80738038 4294901760
0.61817479 0.909832 0.64916819 4294901760
0.34296998 0.62790489 0.54580522 4294901760
0.53683066 0.73950016 0.76424205 4294901760
0.42584017 0.43160424 0.31242314 4294901760
0.29559788 0.097832061 0.13387218 4294901760
0.31866464 0.12083711 0.074061982 4294901760
0.7182579 0.89420247 0.1435654 4294901760
0.60689652 0.034389243 0.18830173 4294901760
0.20476961 0.64028084 0.62870574 4294901760
0.62616444 0.43718597 0.56904536 4294901760
0.62553126 0.12971058 0.19791958 4294901760
0.16212834 0.85449886 0.98937726 4294901760
0.52748573 0.44951516 0.77496833 4294901760
0.80608302 0.52411687 0.65251702 4294901760
0.76477093 0.23786953 0.9597801 4294901760
0.17108355 0.84314913 0.41277486 4294901760
0.615628 0.56318825 0.5069797 4294901760
0.49290425 0.11116263 0.75996143 4294901760
0.86330533 0.048531584 0.50394207 4294901760
0.47346795 0.69348145 0.53399473 4294901760
0.91905135 0.1017634 0.3165251 4294901760
0.98643315 0.95147091 0.15066683 4294901760
4.549569e-05 0.45379272 0.79042751 4294901760
0.62940311 0.94834697 0.3690747 4294901760
0.68179393 0.55736351 0.78684741 4294901760
0.28285897 0.92422879 0.35014603 4294901760
0.33982897 0.12198903 0.62222457 4294901760
0.51248759 0.79458749 0.019289561 4294901760
0.081830896 0.37791157 0.78677011 4294901760
0.33742994 0.753811 0.92806399 4294901760
0.027330641 0.29789504 0.12683314 4294901760
0.44734314 0.7950961 0.63102728 4294901760
0.23172019 0.015632305 0.18268396 4294901760
0.75652534 0.52505159 0.56856775 4294901760
0.27531075 0.74794888 0.07532461 4294901760
0.5747962 0.77303165 0.56120032 4294901760
0.41336179 0.59421903 0.63524425 4294901760
0.34702426 0.62982756 0.59392422 4294901760
0.47924778 0.39177036 0.9667837 4294901760
0.78728044 0.034654979 0.24189828 4294901760
0.87057793 0.86163676 0.65975869 4294901760
0.31495309 0.39308104 0.65092534 4294901760
0.36926064 0.81254625 0.56394106 4294901760
0.3442423 0.6099208 0.054560211 4294901760
0.58003783 0.47549829 0.047267824 4294901760
0.88923192 0.89905852 0.83385378 4294901760
0.12146657 0.55334586 0.5870043 4294901760
0.1873129 0.60462767 0.52317542 4294901760
0.26936799 0.38268575 0.040455047 4294901760
0.21576242 0.98702449 0.5156405 4294901760
0.88939041 0.66716009 0.76686192 4294901760
0.77777952 0.84645283 0.15565512 4294901760
0.32776332 0.24135129 0.99929738 4294901760
0.95235151 0.63755649 0.026673669 4294901760
0.70058495 0.53389156 0.71100861 4294901760
0.89171636 0.3619765 0.63770461 4294901760
0.98701417 0.88448262 0.69210488 4294901760
0.31165847 0.65494615 0.31359783 4294901760
0.35004258 0.46158084 0.21239421 4294901760
0.62555206 0.89727336 0.4367395 4294901760
0.91860002 0.23952794 0.95026875 4294901760
0.56708848 0.90042961 0.34272027 4294901760
0.69620103 0.67713797 0.99229217 4294901760
0.69448912 0.14636222 0.75314265 4294901760
0.5549385 0.78967273 0.47929278 4294901760
0.18832625 0.43679255 0.85357231 4294901760
0.93968987 0.87246603 0.97721404 4294901760
0.20948221 0.083037443 0.0090486258 4294901760
0.48331252 0.43903327 0.48651296 4294901760
0.65016729 0.82092589 0.14073284 4294901760
0.34259826 0.71343994 0.84715313 4294901760
0.80455405 0.20345598 0.66905773 4294901760
0.085755341 0.45066628 0.92537606 4294901760
0.1658137 0.53698874 0.071831517 4294901760
0.65939242 0.58510971 0.16274756 4294901760
0.60070735 0.55103439 0.16429204 4294901760
0.89574581 0.45241201 0.29711372 4294901760
0.41008916 0.10062654 0.22316301 4294901760
0.20927119 0.16744965 0.062076516 4294901760
0.13478178 0.18744186 0.95619327 4294901760
0.11679518 0.86696476 0.44274563 4294901760
0.28325194 0.94709772 0.88301241 4294901760
0.82022274 0.6858927 0.57048982 4294901760
0.97007948 0.3223556 0.37405545 4294901760
0.21634611 0.14467566 0.67562717 4294901760
0.52632457 0.95165533 0.87758714 4294901760
0.1650525 0.61115682 0.13595295 4294901760
0.5686745 0.0094836913 0.5814966 4294901760
0.29047155 0.64812171 0.25069687 4294901760
0.96905017 0.093815461 0.76424509 4294901760
0.37774247 0.64449042 0.58108807 4294901760
0.81347817 0.14178883 0.35748824 4294901760
0.088502757 0.17069721 0.093293339 4294901760
0.023451451 0.52067596 0.38239455 4294901760
0.5284698 0.64436901 0.28907308 4294901760
0.67208821 0.73989236 0.39166006 4294901760
0.32303205 0.54145676 0.15089948 4294901760
0.11351276 0.90399486 0.54125148 4294901760
0.74378371 0.19016595 0.68123782 4294901760
0.20018791 0.66237259 0.18737915 4294901760
0.6513626 0.088441022 0.86538404 4294901760
0.69179648 0.95764232 0.79345256 4294901760
0.78608894 0.95133847 0.29878572 4294901760
0.72680789 0.38864201 0.083083428 4294901760
0.73621619 0.096198179 0.613056 4294901760
0.8353852 0.95574915 0.12649958 4294901760
0.56679106 0.13600761 0.78255171 4294901760
0.4466491 0.93520415 0.1380787 4294901760
0.067032196 0.9176932 0.4079777 4294901760
0.60163665 0.278936 0.58591843 4294901760
0.085522845 0.36437181 0.37707299 4294901760
0.89784026 0.091060117 0.29018909 4294901760
0.057348926 0.20775431 0.54222089 4294901760
0.3361024 0.74262965 0.60021347 4294901760
0.83506656 0.9575972 0.79416913 4294901760
0.2082589 0.033810448 0.54814869 4294901760
0.090312175 0.39431182 0.85745454 4294901760
0.78644747 0.29035172 0.4212783 4294901760
0.62648624 0.76941669 0.39028576 4294901760
0.29959616 0.36982706 0.66206801 4294901760
0.66533279 0.48375645 0.48044121 4294901760
0.022728512 0.81164765 0.76539528 4294901760
0.36638239 0.74223387 0.70202589 4294901760
0.31556523 0.45420125 0.042863246 4294901760
0.55145365 0.7105968 0.78682178 4294901760
0.085356213 0.99185008 0.44511041 4294901760
0.29985157 0.46571207 0.2061653 4294901760
0.022175003 0.79258013 0.42614847 4294901760
0.19844429 0.86668634 0.30958 4294901760
0.065544382 0.71997035 0.0002584433 4294901760
0.98707986 0.53924078 0.17426328 4294901760
0.029039565 0.36515972 0.56005174 4294901760
0.44298998 0.88751364 0.26065588 4294901760
0.7733798 0.58922744 0.80543667 4294901760
0.87636155 0.15237328 0.51313835 4294901760
0.90403795 0.49086031 0.48289049 4294901760
0.16162248 0.42968655 0.44507253 4294901760
0.71828973 0.4376711 0.73454565 4294901760
0.93846941 0.58018565 0.70984787 4294901760
0.92083335 0.67974883 0.096277237 4294901760
0.68811637 0.87311888 0.77101296 4294901760
0.45289728 0.28680667 0.7755872 4294901760
0.013668985 0.25795826 0.36638337 4294901760
0.13930087 0.12597977 0.66814983 4294901760
0.71851397 0.13541341 0.47173223 4294901760
0.72112435 0.72963834 0.25784808 4294901760
0.010791421 0.53017831 0.99356854 4294901760
0.44131511 0.27846861 0.7731474 4294901760
0.9636609 0.4574874 0.13302726 4294901760
0.12437611 0.030843565 0.34515527 4294901760
0.6085189 0.56934607 0.48213443 4294901760
0.82962805 0.82013041 0.099924743 4294901760
0.74551946 0.24626055 0.73557699 4294901760
0.67381072 0.09200643 0.38823903 4294901760
0.94992948 0.71505266 0.96313035 4294901760
0.73115838 0.66819584 0.41939044 4294901760
0.53495383 0.58703172 0.32373291 4294901760
0.46304935 0.480434 0.75268573 4294901760
0.78124619 0.59569794 0.74951273 4294901760
0.69759911 0.044912644 0.73729515 4294901760
0.20698591 0.38323438 0.4671098 4294901760
0.58216107 0.84335637 0.12556188 4294901760
0.42219701 0.56304443 0.10475608 4294901760
0.63415408 0.48091105 0.46444207 4294901760
0.37201089 0.41115859 0.22474746 4294901760
0.75714242 0.76539749 0.52559638 4294901760
0.25198635 0.13340479 0.45388982 4294901760
0.554515 0.32498601 0.36142695 4294901760
0.74383581 0.83924448 0.65101737 4294901760
0.26535687 0.0084451009 0.39671621 4294901760
0.029956462 0.42124724 0.17789871 4294901760
0.28260496 0.66456461 0.2134673 4294901760
0.71788639 0.192552 0.18450397 4294901760
0.88560659 0.39443675 0.37244484 4294901760
0.88246548 0.12573071 0.37161502 4294901760
0.40577263 0.68704528 0.64578885 4294901760
0.39381906 0.41662505 0.18424906 4294901760
0.13073178 0.11161651 0.90219611 4294901760
0.50722492 0.098185681 0.75675833 4294901760
0.0043174028 0.84492302 0.35768786 4294901760
0.59108412 0.49926159 0.91668218 4294901760
0.97275639 0.18157719 0.38376555 4294901760
0.26828656 0.97210622 0.47975627 4294901760
0.61690569 0.73581982 0.97219342 4294901760
0.94031101 0.17676462 0.59440476 4294901760
0.22545025 0.49045119 0.90319538 4294901760
0.012158306 0.059351891 0.72219181 4294901760
0.55224794 0.42715576 0.2470526 4294901760
0.5733186 0.42639163 0.60357332 4294901760
0.22417445 0.93669063 0.660577 4294901760
0.54703802 0.56331271 0.70309973 4294901760
0.86768115 0.56202674 0.12208866 4294901760
0.54664969 0.36045891 0.88897258 4294901760
0.024055514 0.76345289 0.22937527 4294901760
0.6530267 0.84744388 0.8692835 4294901760
0.78372556 0.51783907 0.9796806 4294901760
0.50608009 0.71620083 0.63213044 4294901760
0.13025747 0.46842468 0.3838838 4294901760
0.61220098 0.85026318 0.46067372 4294901760
0.45234188 0.59535855 0.37141466 4294901760
0.24725625 0.28776145 0.63966548 4294901760
0.7859844 0.70775872 0.43064275 4294901760
0.5101347 0.17123556 0.42194545 4294901760
0.93249142 0.39931214 0.74564636 4294901760
0.97276783 0.30899876 0.8830846 4294901760
0.90713859 0.95081949 0.2367615 4294901760
0.61433887 0.45198023 0.0086928681 4294901760
0.96370226 0.54893082 0.35087177 4294901760
0.21044777 0.84918052 0.16236684 4294901760
0.21184695 0.27969855 0.64345998 4294901760
0.20212956 0.66075319 0.2632497 4294901760
0.49492994 0.59976214 0.85692316 4294901760
0.99479353 0.53695023 0.78398883 4294901760
0.38114929 0.60151976 0.23957673 4294901760
0.95383948 0.48356771 0.021965122 4294901760
0.2671378 0.80351758 0.083254859 4294901760
0.28647032 0.63721633 0.1392574 4294901760
0.6807074 0.70891458 0.017928446 4294901760
0.053057924 0.96245158 0.43756893 4294901760
0.36983129 0.66030532 0.88332886 4294901760
0.8614859 0.084872931 0.98146302 4294901760
0.36910638 0.91883832 0.098291174 4294901760
0.77983755 0.26442504 0.61691666 4294901760
0.20460069 0.86264664 0.17246017 4294901760
0.81249923 0.57519567 0.92818844 4294901760
0.11315753 0.79859805 0.83192366 4294901760
0.36668417 0.25079989 0.40327162 4294901760
0.074377447 0.72741061 0.19248119 4294901760
0.18858279 0.37717283 0.85800475 4294901760
0.13485152 0.74897826 0.0074732313 4294901760
0.63230228 0.93642133 0.59410077 4294901760
