# .PCD v0.7 - Point Cloud Data file format
VERSION 0.7
FIELDS x y z rgb
SIZE 4 4 4 4
TYPE F F F U
COUNT 1 1 1 1
WIDTH 1082
HEIGHT 1
VIEWPOINT 0 0 0 1 0 0 0
POINTS 1082
DATA ascii
0.045718178 0.34331495 0.049534269 4278190335
0.045718178 0.34331495 0.049534269 4278190335
0.045718178 0.34331495 0.049534269 4278190335
0.045718178 0.34331495 0.049534269 4278190335
0.41012856 0.98150003 0.78452784 4278190335
0.45243254 0.95894009 0.88821846 4278190335
0.4561255 0.93716389 0.88829023 4278190335
0.42374164 0.95390588 0.85934466 4278190335
0.44650751 0.99695897 0.84510583 4278190335
0.48343047 0.98830873 0.89471936 4278190335
0.44713983 0.99298513 0.78868061 4278190335
0.49674955 0.98575276 0.77421677 4278190335
0.77415103 0.024965271 0.52296191 4278190335
0.80794138 0.01488081 0.42744997 4278190335
0.8343668 0.025611635 0.5073846 4278190335
0.84960002 0.082510397 0.48806053 4278190335
0.81643265 0.05946571 0.53375268 4278190335
0.78813988 0.0077125966 0.49453101 4278190335
0.77415103 0.024965271 0.52296191 4278190335
0.77415103 0.024965271 0.52296191 4278190335
0.40607435 0.81487209 0.47811604 4278190335
0.30477673 0.84160221 0.39236429 4278190335
0.32357845 0.73978448 0.38624194 4278190335
0.40652129 0.74744546 0.37409765 4278190335
0.36797845 0.77245939 0.30432373 4278190335
0.31673649 0.81232166 0.42974994 4278190335
0.42820275 0.76637077 0.44734403 4278190335
0.39077386 0.84963661 0.3306435 4278190335
0.65142345 0.1664893 0.18345469 4278190335
0.61974013 0.10832706 0.23460539 4278190335
0.64839059 0.23369816 0.25030729 4278190335
0.62376773 0.1805613 0.26394403 4278190335
0.70105147 0.13412058 0.1219629 4278190335
0.7403422 0.16960339 0.19036104 4278190335
0.6570639 0.17409624 0.13203293 4278190335
0.65647912 0.16467875 0.26407415 4278190335
0.77208287 0.97935379 0.24337962 4278190335
0.81432116 0.977211 0.2187815 4278190335
0.77208287 0.97935379 0.24337962 4278190335
0.77208287 0.97935379 0.24337962 4278190335
0.77208287 0.97935379 0.24337962 4278190335
0.77208287 0.97935379 0.24337962 4278190335
0.77208287 0.97935379 0.24337962 4278190335
0.77208287 0.97935379 0.24337962 4278190335
0.6852026 0.35618347 0.14045174 4278190335
0.65406817 0.40093893 0.16200443 4278190335
0.64724308 0.37431905 0.065802082 4278190335
0.65452725 0.38491479 0.11175357 4278190335
0.61930102 0.30795339 0.099654704 4278190335
0.68983424 0.36295027 0.12876983 4278190335
0.67096394 0.42876223 0.10237025 4278190335
0.64246005 0.39491275 0.13618243 4278190335
0.09123341 0.9895578 0.95468742 4278190335
0.048936348 0.96942657 0.99206865 4278190335
0.0017126793 0.88152707 0.95105958 4278190335
0.003472066 0.96802562 0.96770716 4278190335
0.047566909 0.98974508 0.97726339 4278190335
0.040667716 0.92355669 0.9855113 4278190335
0.018474072 0.98379213 0.90034026 4278190335
0.003669132 0.88870335 0.92831576 4278190335
0.99065542 0.95308846 0.91739058 4278190335
0.93351227 0.99807954 0.89613056 4278190335
0.99065542 0.95308846 0.91739058 4278190335
0.99065542 0.95308846 0.91739058 4278190335
0.99065542 0.95308846 0.91739058 4278190335
0.99065542 0.95308846 0.91739058 4278190335
0.99065542 0.95308846 0.91739058 4278190335
0.99065542 0.95308846 0.91739058 4278190335
0.25349918 0.076377444 0.95404679 4278190335
0.37758711 0.040433824 0.90847725 4278190335
0.33663785 0.051691473 0.98034781 4278190335
0.37645715 0.07509549 0.92776692 4278190335
0.25349918 0.076377444 0.95404679 4278190335
0.25349918 0.076377444 0.95404679 4278190335
0.25349918 0.076377444 0.95404679 4278190335
0.25349918 0.076377444 0.95404679 4278190335
0.055792421 0.97681731 0.18037644 4278190335
0.020464914 0.99576771 0.13003476 4278190335
0.039062064 0.90532839 0.12511615 4278190335
0.055792421 0.97681731 0.18037644 4278190335
0.055792421 0.97681731 0.18037644 4278190335
0.055792421 0.97681731 0.18037644 4278190335
0.055792421 0.97681731 0.18037644 4278190335
0.055792421 0.97681731 0.18037644 4278190335
0.048719876 0.00094889698 0.10830071 4278190335
0.098944359 0.026062256 0.056341521 4278190335
0.035546362 0.024813032 0.048313599 4278190335
0.13214153 0.019264879 0.071039483 4278190335
0.048719876 0.00094889698 0.10830071 4278190335
0.048719876 0.00094889698 0.10830071 4278190335
0.048719876 0.00094889698 0.10830071 4278190335
0.048719876 0.00094889698 0.10830071 4278190335
0.95761424 0.016071534 0.5796718 4278190335
0.92330962 0.0030222344 0.69835961 4278190335
0.99616802 0.028917896 0.63844496 4278190335
0.97447735 0.084608391 0.5613187 4278190335
0.97078413 0.060322002 0.61976349 4278190335
0.95761424 0.016071534 0.5796718 4278190335
0.95761424 0.016071534 0.5796718 4278190335
0.95761424 0.016071534 0.5796718 4278190335
0.96730822 0.94086313 0.18708462 4278190335
0.93124598 0.94564247 0.065360039 4278190335
0.96151859 0.95673871 0.11641836 4278190335
0.9985925 0.98488736 0.12036183 4278190335
0.96730822 0.94086313 0.18708462 4278190335
0.96730822 0.94086313 0.18708462 4278190335
0.96730822 0.94086313 0.18708462 4278190335
0.96730822 0.94086313 0.18708462 4278190335
0.030962089 0.40817064 0.49326059 4278190335
0.078145452 0.47637397 0.48552573 4278190335
0.033808351 0.44226164 0.53411835 4278190335
0.030962089 0.40817064 0.49326059 4278190335
0.030962089 0.40817064 0.49326059 4278190335
0.030962089 0.40817064 0.49326059 4278190335
0.030962089 0.40817064 0.49326059 4278190335
0.030962089 0.40817064 0.49326059 4278190335
0.60205621 0.93582374 0.53462625 4278190335
0.52294725 0.96840376 0.49739891 4278190335
0.54401267 0.95751339 0.53036314 4278190335
0.5992775 0.95570987 0.51518321 4278190335
0.5370518 0.9595499 0.57511044 4278190335
0.54600239 0.97921538 0.57748777 4278190335
0.57073039 0.97445035 0.48727313 4278190335
0.53978276 0.97843492 0.44783118 4278190335
0.51039886 0.61635065 0.83370703 4278190335
0.45937541 0.5959456 0.94824195 4278190335
0.50604731 0.49364111 0.89404905 4278190335
0.49771065 0.52152872 0.97751743 4278190335
0.49650586 0.57796723 0.85075241 4278190335
0.54792184 0.55604821 0.88002098 4278190335
0.49526498 0.58715314 0.9093194 4278190335
0.49273461 0.51956522 0.89439404 4278190335
0.46435365 0.0044360794 0.50309241 4278190335
0.43215248 0.048752092 0.42557496 4278190335
0.52687711 0.074049279 0.40784082 4278190335
0.38557473 0.11388201 0.45628533 4278190335
0.39695644 0.070497751 0.40898055 4278190335
0.33887884 0.074673064 0.40177178 4278190335
0.45893109 0.044094417 0.51383299 4278190335
0.46435365 0.0044360794 0.50309241 4278190335
0.045997117 0.59368038 0.0050227311 4278190335
0.12360911 0.47499898 0.09056253 4278190335
0.088627525 0.58538115 0.055506807 4278190335
0.084690489 0.51581907 0.0081111845 4278190335
0.15206863 0.58359158 0.0070265578 4278190335
0.029207325 0.55834806 0.0082379049 4278190335
0.045997117 0.59368038 0.0050227311 4278190335
0.045997117 0.59368038 0.0050227311 4278190335
0.94634104 0.63575101 0.5415563 4278190335
0.96675748 0.7057274 0.59301972 4278190335
0.96203649 0.72394997 0.49906933 4278190335
0.95040971 0.71429753 0.60044611 4278190335
0.94634104 0.63575101 0.5415563 4278190335
0.94634104 0.63575101 0.5415563 4278190335
0.94634104 0.63575101 0.5415563 4278190335
0.94634104 0.63575101 0.5415563 4278190335
0.86949623 0.02916884 0.12376115 4278190335
0.96933717 0.11090539 0.18168721 4278190335
0.92950451 0.036261365 0.19505948 4278190335
0.95632249 0.038736425 0.14876306 4278190335
0.86949623 0.02916884 0.12376115 4278190335
0.86949623 0.02916884 0.12376115 4278190335
0.86949623 0.02916884 0.12376115 4278190335
0.86949623 0.02916884 0.12376115 4278190335
0.89238822 0.33699346 0.97732931 4278190335
0.92690861 0.32835567 0.96252137 4278190335
0.87897158 0.38836753 0.99974161 4278190335
0.89238822 0.33699346 0.97732931 4278190335
0.89238822 0.33699346 0.97732931 4278190335
0.89238822 0.33699346 0.97732931 4278190335
0.89238822 0.33699346 0.97732931 4278190335
0.89238822 0.33699346 0.97732931 4278190335
0.40675277 0.90952986 0.058223795 4278190335
0.47917271 0.8507601 0.05471522 4278190335
0.43171632 0.82491881 0.093937248 4278190335
0.45854291 0.81131238 0.10287978 4278190335
0.44582999 0.90474069 0.0013841615 4278190335
0.45252743 0.78023648 0.061760705 4278190335
0.47479606 0.85431057 0.082681693 4278190335
0.40675277 0.90952986 0.058223795 4278190335
0.0046158228 0.47536808 0.94990504 4278190335
0.0073735234 0.56121939 0.99160415 4278190335
0.010576144 0.43229398 0.86544693 4278190335
0.0046158228 0.47536808 0.94990504 4278190335
0.0046158228 0.47536808 0.94990504 4278190335
0.0046158228 0.47536808 0.94990504 4278190335
0.0046158228 0.47536808 0.94990504 4278190335
0.0046158228 0.47536808 0.94990504 4278190335
0.563748 0.99512881 0.88440317 4278190335
0.54009378 0.99648738 0.94827461 4278190335
0.563748 0.99512881 0.88440317 4278190335
0.563748 0.99512881 0.88440317 4278190335
0.563748 0.99512881 0.88440317 4278190335
0.563748 0.99512881 0.88440317 4278190335
0.563748 0.99512881 0.88440317 4278190335
0.563748 0.99512881 0.88440317 4278190335
0.53066683 0.013609674 0.027170109 4278190335
0.57546091 0.00398112 0.025715631 4278190335
0.60895526 0.028397456 0.04205713 4278190335
0.52862883 0.020903697 0.039596941 4278190335
0.53066683 0.013609674 0.027170109 4278190335
0.53066683 0.013609674 0.027170109 4278190335
0.53066683 0.013609674 0.027170109 4278190335
0.53066683 0.013609674 0.027170109 4278190335
0.14095256 0.83763319 0.57741773 4278190335
0.20530924 0.81173921 0.52763736 4278190335
0.20040987 0.80578017 0.61029488 4278190335
0.2182218 0.87575579 0.59205955 4278190335
0.14095256 0.83763319 0.57741773 4278190335
0.14095256 0.83763319 0.57741773 4278190335
0.14095256 0.83763319 0.57741773 4278190335
0.14095256 0.83763319 0.57741773 4278190335
0.05214753 0.13353851 0.67464161 4278190335
0.071543314 0.065135568 0.70610422 4278190335
0.066330142 0.020357972 0.75806051 4278190335
0.094489694 0.097255222 0.67648077 4278190335
0.072844885 0.0095297555 0.70196927 4278190335
0.079107679 0.14784992 0.68632454 4278190335
0.047807537 0.056546874 0.69264311 4278190335
0.05214753 0.13353851 0.67464161 4278190335
0.50853491 0.45570531 0.50164831 4278190335
0.51777506 0.50571722 0.56471568 4278190335
0.5581795 0.483693 0.53879058 4278190335
0.47950318 0.4748266 0.58085239 4278190335
0.45423594 0.52193421 0.52837223 4278190335
0.59392864 0.43679211 0.49048018 4278190335
0.44323888 0.42471924 0.47124028 4278190335
0.50853491 0.45570531 0.50164831 4278190335
0.94987661 0.58457166 0.013241839 4278190335
0.94987661 0.58457166 0.013241839 4278190335
0.94987661 0.58457166 0.013241839 4278190335
0.94987661 0.58457166 0.013241839 4278190335
0.94987661 0.58457166 0.013241839 4278190335
0.94987661 0.58457166 0.013241839 4278190335
0.94987661 0.58457166 0.013241839 4278190335
0.94987661 0.58457166 0.013241839 4278190335
0.68696415 0.064890645 0.85750395 4278190335
0.74283355 0.054988906 0.77662957 4278190335
0.68696415 0.064890645 0.85750395 4278190335
0.68696415 0.064890645 0.85750395 4278190335
0.68696415 0.064890645 0.85750395 4278190335
0.68696415 0.064890645 0.85750395 4278190335
0.68696415 0.064890645 0.85750395 4278190335
0.68696415 0.064890645 0.85750395 4278190335
0.88515186 0.27708253 0.48562202 4278190335
0.86028266 0.31689766 0.39490172 4278190335
0.87033427 0.27233207 0.39647761 4278190335
0.83798802 0.23126264 0.42319649 4278190335
0.8731817 0.23569939 0.34717324 4278190335
0.88683891 0.29765132 0.31013539 4278190335
0.85232031 0.36124727 0.35866532 4278190335
0.88060331 0.30945361 0.39375952 4278190335
0.22514281 0.36212859 0.29453772 4278190335
0.29804751 0.24717571 0.29112524 4278190335
0.30618834 0.24574068 0.29248303 4278190335
0.27313137 0.26208526 0.30018613 4278190335
0.27201697 0.31109518 0.27656135 4278190335
0.29043236 0.30202189 0.16464168 4278190335
0.31736475 0.30967674 0.32159892 4278190335
0.25049287 0.30702958 0.25212285 4278190335
0.9017598 0.96753401 0.46885189 4278190335
0.90258956 0.99452674 0.46018812 4278190335
0.9017598 0.96753401 0.46885189 4278190335
0.9017598 0.96753401 0.46885189 4278190335
0.9017598 0.96753401 0.46885189 4278190335
0.9017598 0.96753401 0.46885189 4278190335
0.9017598 0.96753401 0.46885189 4278190335
0.9017598 0.96753401 0.46885189 4278190335
0.76841736 0.76855713 0.3890512 4278190335
0.71545941 0.78540659 0.36670882 4278190335
0.70867866 0.79700279 0.30919644 4278190335
0.6960113 0.69865757 0.3863939 4278190335
0.75508809 0.80150098 0.33970237 4278190335
0.7924037 0.76794237 0.25381702 4278190335
0.71102107 0.75921988 0.30953553 4278190335
0.76841736 0.76855713 0.3890512 4278190335
0.26305649 0.65670669 0.32096744 4278190335
0.28547713 0.62217999 0.28534785 4278190335
0.31325775 0.6380704 0.32617977 4278190335
0.20852573 0.62627494 0.31195956 4278190335
0.23384166 0.6788134 0.3273693 4278190335
0.22073926 0.65086222 0.26032299 4278190335
0.26305649 0.65670669 0.32096744 4278190335
0.26305649 0.65670669 0.32096744 4278190335
0.3093386 0.2930938 0.78132111 4278190335
0.41871122 0.36918578 0.77214289 4278190335
0.33706033 0.27563217 0.81127381 4278190335
0.38457814 0.34955949 0.81182051 4278190335
0.2980049 0.24506965 0.81608981 4278190335
0.34887359 0.2885896 0.85259849 4278190335
0.38491172 0.25038379 0.83773077 4278190335
0.34834558 0.2723304 0.79767644 4278190335
0.72048467 0.84969497 0.75007617 4278190335
0.74629444 0.75932854 0.69160557 4278190335
0.73581117 0.88596225 0.74773008 4278190335
0.70257115 0.76931018 0.73094064 4278190335
0.70843345 0.87604159 0.76927948 4278190335
0.82722408 0.78352994 0.71524882 4278190335
0.78628647 0.76724219 0.67120165 4278190335
0.73986667 0.80152559 0.7419439 4278190335
0.96162623 0.64158034 0.92868805 4278190335
0.96157885 0.57217854 0.93926603 4278190335
0.89398479 0.63929087 0.90202379 4278190335
0.96162623 0.64158034 0.92868805 4278190335
0.96162623 0.64158034 0.92868805 4278190335
0.96162623 0.64158034 0.92868805 4278190335
0.96162623 0.64158034 0.92868805 4278190335
0.96162623 0.64158034 0.92868805 4278190335
0.77054507 0.45151934 0.6901173 4278190335
0.78307492 0.36621776 0.66562402 4278190335
0.77955705 0.34639493 0.61958456 4278190335
0.86555433 0.43018851 0.65066421 4278190335
0.8587814 0.41318071 0.62513131 4278190335
0.7442922 0.44993278 0.67566872 4278190335
0.78277278 0.38410985 0.67472672 4278190335
0.84652311 0.37985554 0.68902642 4278190335
0.19375208 0.70394409 0.92148131 4278190335
0.22774707 0.70282245 0.87139666 4278190335
0.19415681 0.73129529 0.93624067 4278190335
0.22091314 0.70365953 0.81893492 4278190335
0.22290786 0.72638392 0.89418846 4278190335
0.23143336 0.68844008 0.88269943 4278190335
0.24167104 0.72490847 0.95806807 4278190335
0.20770709 0.69885403 0.91516751 4278190335
0.055733223 0.096151166 0.92199928 4278190335
0.019446604 0.059858914 0.9949016 4278190335
0.055733223 0.096151166 0.92199928 4278190335
0.055733223 0.096151166 0.92199928 4278190335
0.055733223 0.096151166 0.92199928 4278190335
0.055733223 0.096151166 0.92199928 4278190335
0.055733223 0.096151166 0.92199928 4278190335
0.055733223 0.096151166 0.92199928 4278190335
0.24211332 0.932235 0.28712523 4278190335
0.26473755 0.98124093 0.33977011 4278190335
0.21722688 0.98204553 0.2695469 4278190335
0.17685862 0.97018981 0.32269955 4278190335
0.24061723 0.92277336 0.40708089 4278190335
0.25574455 0.98113406 0.34959301 4278190335
0.26147056 0.99754238 0.38568732 4278190335
0.21806416 0.98838645 0.37997219 4278190335
0.37500423 0.49589404 0.01833191 4278190335
0.37898964 0.57128966 0.045355119 4278190335
0.38043523 0.63979042 0.11058702 4278190335
0.30317101 0.52487606 0.017426187 4278190335
0.35736603 0.56227958 0.04706892 4278190335
0.44724375 0.56103134 0.076912776 4278190335
0.37500423 0.49589404 0.01833191 4278190335
0.37500423 0.49589404 0.01833191 4278190335
0.80843776 0.011809606 0.43264401 4278190335
0.701469 0.011234485 0.4413673 4278190335
0.74551958 0.037285861 0.48525137 4278190335
0.71703601 0.013162933 0.55042058 4278190335
0.75552583 0.11584547 0.4316828 4278190335
0.82817411 0.069333196 0.44326389 4278190335
0.78360373 0.0073436797 0.54472274 4278190335
0.76989412 0.10933374 0.46963578 4278190335
0.061921805 0.066749319 0.40666035 4278190335
0.049867481 0.069655776 0.41264045 4278190335
0.061921805 0.066749319 0.40666035 4278190335
0.061921805 0.066749319 0.40666035 4278190335
0.061921805 0.066749319 0.40666035 4278190335
0.061921805 0.066749319 0.40666035 4278190335
0.061921805 0.066749319 0.40666035 4278190335
0.061921805 0.066749319 0.40666035 4278190335
0.24397904 0.53625315 0.59789807 4278190335
0.25693265 0.62115723 0.6435321 4278190335
0.32438746 0.52365226 0.62893778 4278190335
0.26640859 0.56924009 0.65918815 4278190335
0.31038681 0.49164882 0.68682587 4278190335
0.16941543 0.55761003 0.64615762 4278190335
0.33659166 0.58285779 0.66571176 4278190335
0.29650387 0.49739826 0.63694954 4278190335
0.93228364 0.055583954 0.99716771 4278190335
0.86851972 0.0078037791 0.95474428 4278190335
0.94833136 0.13150381 0.9952805 4278190335
0.93669271 0.029649794 0.971421 4278190335
0.93228364 0.055583954 0.99716771 4278190335
0.93228364 0.055583954 0.99716771 4278190335
0.93228364 0.055583954 0.99716771 4278190335
0.93228364 0.055583954 0.99716771 4278190335
0.27008712 0.74438757 0.088622145 4278190335
0.23901133 0.73645759 0.03171498 4278190335
0.18858682 0.83890396 0.066857524 4278190335
0.16520561 0.74147415 0.10664874 4278190335
0.21761931 0.82467943 0.0869155 4278190335
0.19751017 0.77403176 0.035403993 4278190335
0.27008712 0.74438757 0.088622145 4278190335
0.27008712 0.74438757 0.088622145 4278190335
0.35067502 0.81992638 0.65013796 4278190335
0.3400512 0.75057209 0.71820003 4278190335
0.36875361 0.78604645 0.77490282 4278190335
0.3322753 0.75132751 0.69750494 4278190335
0.38359591 0.83122259 0.70348793 4278190335
0.42218891 0.81517494 0.75581163 4278190335
0.35067502 0.81992638 0.65013796 4278190335
0.35067502 0.81992638 0.65013796 4278190335
0.6221686 0.15591294 0.60634351 4278190335
0.52965486 0.22713652 0.62956858 4278190335
0.47855544 0.23795389 0.62626374 4278190335
0.54923451 0.20523678 0.61620981 4278190335
0.56284839 0.26149285 0.6587947 4278190335
0.51678884 0.20585789 0.58104205 4278190335
0.58819282 0.15107013 0.648103 4278190335
0.49798593 0.28309226 0.64230818 4278190335
0.84641385 0.85874772 0.062180672 4278190335
0.6819222 0.85184258 0.092363693 4278190335
0.81313741 0.85080576 0.070971206 4278190335
0.71833944 0.88663393 0.11669987 4278190335
0.75443739 0.89384121 0.056274932 4278190335
0.69948995 0.94055551 0.076830089 4278190335
0.72856164 0.93123364 0.058636311 4278190335
0.68488163 0.87216759 0.10768941 4278190335
0.0080174217 0.89817005 0.34724656 4278190335
0.023626689 0.73941678 0.29911849 4278190335
0.012846665 0.81949008 0.34451237 4278190335
0.003999359 0.86661822 0.27652606 4278190335
0.077429719 0.76936436 0.34178737 4278190335
0.0080174217 0.89817005 0.34724656 4278190335
0.0080174217 0.89817005 0.34724656 4278190335
0.0080174217 0.89817005 0.34724656 4278190335
0.69838768 0.14781561 0.21712735 4278190335
0.66759801 0.14712951 0.29203057 4278190335
0.68130928 0.16480048 0.1692673 4278190335
0.66977829 0.22726735 0.23989457 4278190335
0.74982613 0.089466572 0.20640855 4278190335
0.65970296 0.17171337 0.19385646 4278190335
0.71586233 0.23222609 0.18720883 4278190335
0.72276187 0.16069221 0.28941667 4278190335
0.20574498 0.2398141 0.55071193 4278190335
0.25351968 0.24777205 0.48694924 4278190335
0.24310844 0.29051751 0.52662796 4278190335
0.13544545 0.23345786 0.61061436 4278190335
0.18902437 0.32086128 0.52281183 4278190335
0.18644769 0.26308805 0.53867465 4278190335
0.24899298 0.26964226 0.53639382 4278190335
0.26156664 0.17483634 0.58193189 4278190335
0.63762397 0.4360553 0.95080024 4278190335
0.64645159 0.33272466 0.88884336 4278190335
0.58679318 0.29986054 0.87284231 4278190335
0.63532323 0.34753585 0.91445315 4278190335
0.66941601 0.33251417 0.83618397 4278190335
0.57880098 0.2904304 0.89499265 4278190335
0.59097433 0.37086758 0.91768444 4278190335
0.70431 0.36665529 0.85060412 4278190335
0.25228906 0.93169963 0.96996725 4278190335
0.20487148 0.98234779 0.96044409 4278190335
0.31582993 0.92187041 0.94915628 4278190335
0.25414681 0.93844247 0.90491843 4278190335
0.2683861 0.94161409 0.94891506 4278190335
0.23505747 0.94579577 0.9709987 4278190335
0.26658317 0.97574008 0.99083978 4278190335
0.24335034 0.95471567 0.91631091 4278190335
0.97363025 0.38270754 0.1037591 4278190335
0.97177875 0.23583324 0.13093348 4278190335
0.92812061 0.29289541 0.20439972 4278190335
0.98807317 0.31970662 0.1535925 4278190335
0.97363025 0.38270754 0.1037591 4278190335
0.97363025 0.38270754 0.1037591 4278190335
0.97363025 0.38270754 0.1037591 4278190335
0.97363025 0.38270754 0.1037591 4278190335
0.37461394 0.30218017 0.031565353 4278190335
0.50000149 0.33689079 0.03931779 4278190335
0.42568228 0.36537251 0.022653412 4278190335
0.43390128 0.31032285 0.0059120292 4278190335
0.41595849 0.27785352 0.097621702 4278190335
0.37461394 0.30218017 0.031565353 4278190335
0.37461394 0.30218017 0.031565353 4278190335
0.37461394 0.30218017 0.031565353 4278190335
0.086627617 0.40202612 0.31592369 4278190335
0.082681276 0.40265211 0.2952798 4278190335
0.093448438 0.37581784 0.28702131 4278190335
0.010910297 0.40156597 0.2813499 4278190335
0.086627617 0.40202612 0.31592369 4278190335
0.086627617 0.40202612 0.31592369 4278190335
0.086627617 0.40202612 0.31592369 4278190335
0.086627617 0.40202612 0.31592369 4278190335
0.98963535 0.76196378 0.24462077 4278190335
0.98294014 0.72868049 0.31911328 4278190335
0.93623036 0.78862798 0.26149386 4278190335
0.99222589 0.82395399 0.25473937 4278190335
0.99934876 0.79698581 0.27987733 4278190335
0.99624604 0.7701841 0.22120844 4278190335
0.99198234 0.82853401 0.21152598 4278190335
0.98963535 0.76196378 0.24462077 4278190335
0.8298595 0.5779441 0.25524575 4278190335
0.83313644 0.5464744 0.24065277 4278190335
0.85399902 0.63214052 0.22571154 4278190335
0.78815085 0.557464 0.16204809 4278190335
0.83368552 0.48865038 0.16163827 4278190335
0.75678533 0.52906615 0.21108755 4278190335
0.84825432 0.54091871 0.30051154 4278190335
0.8298595 0.5779441 0.25524575 4278190335
0.078191623 0.70020062 0.62675428 4278190335
0.097686782 0.65499324 0.73675907 4278190335
0.022129184 0.67861712 0.70862615 4278190335
0.048044469 0.58511335 0.71919703 4278190335
0.067140266 0.61960626 0.61296433 4278190335
0.082752585 0.63338202 0.62499118 4278190335
0.054190584 0.70611113 0.74690992 4278190335
0.085505098 0.69553918 0.67375124 4278190335
0.2338399 0.22774696 0.99460667 4278190335
0.15986013 0.25903401 0.99337173 4278190335
0.15657488 0.2666218 0.98810095 4278190335
0.11021028 0.2101997 0.96394235 4278190335
0.17858708 0.21575293 0.97964954 4278190335
0.170899 0.28039646 0.90505433 4278190335
0.10802186 0.24547593 0.9134928 4278190335
0.19631477 0.28480932 0.94585103 4278190335
0.62098867 0.5882597 0.52003938 4278190335
0.6971218 0.62922472 0.51675558 4278190335
0.71222472 0.64672363 0.58496517 4278190335
0.68859297 0.5878619 0.43822956 4278190335
0.72397143 0.65567613 0.59288281 4278190335
0.70019865 0.66093779 0.50217205 4278190335
0.72333729 0.60017931 0.51570266 4278190335
0.60888433 0.67610329 0.51837164 4278190335
0.31584835 0.11304545 0.71367341 4278190335
0.32395297 0.11835929 0.59584081 4278190335
0.34836325 0.085827649 0.65242171 4278190335
0.35857293 0.084578037 0.69611573 4278190335
0.33051807 0.063153937 0.66347349 4278190335
0.36520252 0.13761745 0.71322107 4278190335
0.31584835 0.11304545 0.71367341 4278190335
0.31584835 0.11304545 0.71367341 4278190335
0.35003346 0.030348813 0.059158135 4278190335
0.3192744 0.091477081 0.064373344 4278190335
0.2474741 0.024860524 0.081302226 4278190335
0.29375392 0.0096194949 0.08197882 4278190335
0.35003346 0.030348813 0.059158135 4278190335
0.35003346 0.030348813 0.059158135 4278190335
0.35003346 0.030348813 0.059158135 4278190335
0.35003346 0.030348813 0.059158135 4278190335
0.13189173 0.2909143 0.1279382 4278190335
0.020645602 0.2568396 0.12624089 4278190335
0.067501687 0.3684161 0.039693259 4278190335
0.070040852 0.36385739 0.097642966 4278190335
0.068714887 0.37751287 0.045022517 4278190335
0.11644255 0.28526157 0.15408874 4278190335
0.067995884 0.28215697 0.06972634 4278190335
0.10275196 0.23416422 0.13986349 4278190335
0.45440966 0.73460007 0.25206435 4278190335
0.4974196 0.81191927 0.36539069 4278190335
0.45916212 0.77144772 0.22055227 4278190335
0.43492869 0.77387041 0.32505843 4278190335
0.46628124 0.80044764 0.28857702 4278190335
0.42568341 0.78288049 0.29842362 4278190335
0.50396758 0.83519197 0.21243906 4278190335
0.43520418 0.81095713 0.26420611 4278190335
0.2130354 0.99933308 0.8477596 4278190335
0.16762406 0.96465564 0.68403172 4278190335
0.20169692 0.9995442 0.83225965 4278190335
0.16321054 0.97579134 0.77150315 4278190335
0.2130354 0.99933308 0.8477596 4278190335
0.2130354 0.99933308 0.8477596 4278190335
0.2130354 0.99933308 0.8477596 4278190335
0.2130354 0.99933308 0.8477596 4278190335
0.8529641 0.17632782 0.066665217 4278190335
0.83838916 0.18850476 0.04362528 4278190335
0.84350955 0.20008191 0.0087117311 4278190335
0.89952791 0.21435717 0.00042550277 4278190335
0.81576401 0.18214576 0.055374231 4278190335
0.8529641 0.17632782 0.066665217 4278190335
0.8529641 0.17632782 0.066665217 4278190335
0.8529641 0.17632782 0.066665217 4278190335
0.97628891 0.095910892 0.43367773 4278190335
0.95627743 0.08868745 0.37966469 4278190335
0.91295791 0.035635959 0.31829193 4278190335
0.99087763 0.0051214942 0.35606614 4278190335
0.87978166 0.14995928 0.36652258 4278190335
0.95550561 0.14276829 0.44224116 4278190335
0.87146372 0.036356535 0.38296217 4278190335
0.97628891 0.095910892 0.43367773 4278190335
0.76850092 0.61607057 0.98509812 4278190335
0.67069864 0.6004135 0.96702379 4278190335
0.75911433 0.5629974 0.92969304 4278190335
0.8044796 0.53482372 0.91177016 4278190335
0.68493897 0.57431489 0.93356282 4278190335
0.72412533 0.51594168 0.88836765 4278190335
0.74425673 0.5496226 0.95809859 4278190335
0.76850092 0.61607057 0.98509812 4278190335
0.29207084 0.38661063 0.94298077 4278190335
0.33233279 0.46687233 0.93996805 4278190335
0.36488158 0.37047207 0.95978034 4278190335
0.34695137 0.42206094 0.95818913 4278190335
0.32551548 0.4352347 0.92941213 4278190335
0.35451156 0.41925979 0.98857009 4278190335
0.29207084 0.38661063 0.94298077 4278190335
0.29207084 0.38661063 0.94298077 4278190335
0.66292822 0.69038844 0.097875141 4278190335
0.66413635 0.68208438 0.037048936 4278190335
0.68398172 0.66538566 0.10458902 4278190335
0.66292822 0.69038844 0.097875141 4278190335
0.66292822 0.69038844 0.097875141 4278190335
0.66292822 0.69038844 0.097875141 4278190335
0.66292822 0.69038844 0.097875141 4278190335
0.66292822 0.69038844 0.097875141 4278190335
0.93527627 0.39345595 0.71111053 4278190335
0.91025227 0.35810882 0.80256039 4278190335
0.94904321 0.43216029 0.82330692 4278190335
0.95476264 0.36634913 0.78192973 4278190335
0.92535335 0.38869062 0.76915479 4278190335
0.96212333 0.33766419 0.72676027 4278190335
0.96446806 0.42022559 0.68855178 4278190335
0.99210644 0.3753646 0.77187932 4278190335
0.70081741 0.91054833 0.91936266 4278190335
0.75256151 0.91659546 0.97131938 4278190335
0.78140116 0.92285019 0.91695768 4278190335
0.70081741 0.91054833 0.91936266 4278190335
0.70081741 0.91054833 0.91936266 4278190335
0.70081741 0.91054833 0.91936266 4278190335
0.70081741 0.91054833 0.91936266 4278190335
0.70081741 0.91054833 0.91936266 4278190335
0.59503824 0.63059288 0.23433906 4278190335
0.6050818 0.49894106 0.23791848 4278190335
0.61202651 0.49871367 0.27783012 4278190335
0.55499947 0.64563054 0.34080344 4278190335
0.59395486 0.56717861 0.30836436 4278190335
0.56197566 0.48876742 0.30073649 4278190335
0.6437493 0.55377942 0.37394589 4278190335
0.55417997 0.59917253 0.31177893 4278190335
0.50672072 0.18061304 0.1344043 4278190335
0.52295989 0.25842163 0.15243591 4278190335
0.4837009 0.24332327 0.12434476 4278190335
0.40925625 0.18289335 0.19507341 4278190335
0.48188177 0.20610455 0.20269278 4278190335
0.53588414 0.22594553 0.24477264 4278190335
0.52008235 0.23886801 0.12451756 4278190335
0.41709173 0.21422617 0.20819151 4278190335
0.98315132 0.84850669 0.78816295 4278190335
0.97277606 0.81781077 0.73925066 4278190335
0.99749792 0.80431926 0.79426837 4278190335
0.98315132 0.84850669 0.78816295 4278190335
0.98315132 0.84850669 0.78816295 4278190335
0.98315132 0.84850669 0.78816295 4278190335
0.98315132 0.84850669 0.78816295 4278190335
0.98315132 0.84850669 0.78816295 4278190335
0.056638312 0.23298679 0.69955218 4278190335
0.01973547 0.21684411 0.72480208 4278190335
0.010307916 0.38423863 0.73471063 4278190335
0.013852612 0.29656962 0.70253062 4278190335
0.026553938 0.36786082 0.68273252 4278190335
0.0020698686 0.24346252 0.64114243 4278190335
0.056638312 0.23298679 0.69955218 4278190335
0.056638312 0.23298679 0.69955218 4278190335
0.066545822 0.64533061 0.28633964 4278190335
0.0019689593 0.61000997 0.21499284 4278190335
0.13033102 0.6340993 0.28179452 4278190335
0.10694645 0.58892536 0.16254325 4278190335
0.03040397 0.5626204 0.23886481 4278190335
0.079357378 0.5571171 0.18681055 4278190335
0.11526558 0.64477801 0.24449214 4278190335
0.063736342 0.62494493 0.22500791 4278190335
0.62046319 0.84972233 0.93703777 4278190335
0.5751493 0.78063506 0.96536118 4278190335
0.52285814 0.84005511 0.9968797 4278190335
0.55200541 0.87450618 0.97179598 4278190335
0.62046319 0.84972233 0.93703777 4278190335
0.62046319 0.84972233 0.93703777 4278190335
0.62046319 0.84972233 0.93703777 4278190335
0.62046319 0.84972233 0.93703777 4278190335
0.46307343 0.62053204 0.55167717 4278190335
0.42530575 0.65379429 0.47866896 4278190335
0.34696558 0.60729778 0.45320407 4278190335
0.40840241 0.61766249 0.39557245 4278190335
0.44770569 0.66475099 0.44176099 4278190335
0.50343299 0.62747192 0.47772437 4278190335
0.51481193 0.66080189 0.4606947 4278190335
0.41948727 0.62650156 0.55912012 4278190335
0.54507065 0.22344688 0.46603674 4278190335
0.55730605 0.19152518 0.42798716 4278190335
0.58358639 0.17797481 0.4671931 4278190335
0.5706864 0.14731637 0.40503442 4278190335
0.53626049 0.1803901 0.44629115 4278190335
0.53930026 0.17057654 0.43285432 4278190335
0.59653229 0.21728508 0.39414644 4278190335
0.52383065 0.26169536 0.44506109 4278190335
0.81078249 0.96447712 0.61095989 4278190335
0.65849376 0.97898549 0.63628072 4278190335
0.75276911 0.92242604 0.55561054 4278190335
0.8055799 0.92739511 0.60932291 4278190335
0.74331415 0.97878093 0.61925638 4278190335
0.72384822 0.99597013 0.6761921 4278190335
0.79310483 0.93096292 0.66093773 4278190335
0.7430138 0.95153046 0.52975887 4278190335
0.21317481 0.5032289 0.80931443 4278190335
0.2555702 0.38224971 0.7984494 4278190335
0.22484374 0.45769978 0.90650332 4278190335
0.19881684 0.39922342 0.82822222 4278190335
0.20562431 0.44783297 0.83720517 4278190335
0.19996752 0.48890439 0.76335847 4278190335
0.24522679 0.46781349 0.77335697 4278190335
0.25676432 0.43327022 0.7588641 4278190335
0.25610936 0.97681922 0.067995705 4278190335
0.30736992 0.95707726 0.025289763 4278190335
0.25905478 0.92165124 0.043317366 4278190335
0.24797079 0.94557071 0.010583825 4278190335
0.22611924 0.97362655 0.045280337 4278190335
0.20548375 0.99303699 0.070521429 4278190335
0.25610936 0.97681922 0.067995705 4278190335
0.25610936 0.97681922 0.067995705 4278190335
0.55325681 0.52607018 0.71387905 4278190335
0.5691942 0.52643985 0.68179506 4278190335
0.49075124 0.52638638 0.68647498 4278190335
0.53587055 0.54322445 0.67501545 4278190335
0.58748281 0.50438648 0.66882277 4278190335
0.46303132 0.5263949 0.72654128 4278190335
0.55325681 0.52607018 0.71387905 4278190335
0.55325681 0.52607018 0.71387905 4278190335
0.90860295 0.21990012 0.60840517 4278190335
0.87883633 0.25191197 0.66931659 4278190335
0.87601316 0.22325274 0.52335489 4278190335
0.85757357 0.19709589 0.65709323 4278190335
0.90336496 0.16657023 0.62804317 4278190335
0.83508641 0.19970641 0.67049962 4278190335
0.90860295 0.21990012 0.60840517 4278190335
0.90860295 0.21990012 0.60840517 4278190335
0.69376326 0.058400087 0.0042942818 4278190335
0.80459446 0.014564788 0.013574228 4278190335
0.74611032 0.011407103 0.064096212 4278190335
0.74322808 0.048498083 0.049122818 4278190335
0.77098513 0.092807218 0.082756869 4278190335
0.79270107 0.063385367 0.063407868 4278190335
0.69376326 0.058400087 0.0042942818 4278190335
0.69376326 0.058400087 0.0042942818 4278190335
0.26733518 0.43254364 0.49394849 4278190335
0.2054747 0.48752931 0.47428095 4278190335
0.23943718 0.38493553 0.55072117 4278190335
0.33820364 0.3925119 0.47316217 4278190335
0.26733518 0.43254364 0.49394849 4278190335
0.26733518 0.43254364 0.49394849 4278190335
0.26733518 0.43254364 0.49394849 4278190335
0.26733518 0.43254364 0.49394849 4278190335
0.89392298 0.92553693 0.23484004 4278190335
0.76375157 0.85908788 0.25983623 4278190335
0.80507356 0.94128877 0.26983967 4278190335
0.89392298 0.92553693 0.23484004 4278190335
0.89392298 0.92553693 0.23484004 4278190335
0.89392298 0.92553693 0.23484004 4278190335
0.89392298 0.92553693 0.23484004 4278190335
0.89392298 0.92553693 0.23484004 4278190335
0.43345827 0.12686965 0.78521621 4278190335
0.46208754 0.077256225 0.8275519 4278190335
0.4324207 0.049766451 0.84021562 4278190335
0.47964898 0.12414328 0.79352963 4278190335
0.52091557 0.051214222 0.78166938 4278190335
0.49430698 0.1460333 0.75365728 4278190335
0.45435217 0.18838231 0.79421073 4278190335
0.50595331 0.12615147 0.80766696 4278190335
0.024480881 0.78672457 0.83225018 4278190335
0.10556418 0.76890618 0.77746719 4278190335
0.066100203 0.79579026 0.78143114 4278190335
0.045051467 0.86145186 0.84020936 4278190335
0.0063438392 0.87308925 0.79296768 4278190335
0.024480881 0.78672457 0.83225018 4278190335
0.024480881 0.78672457 0.83225018 4278190335
0.024480881 0.78672457 0.83225018 4278190335
0.13280451 0.63218296 0.51246375 4278190335
0.06607043 0.6523037 0.56293738 4278190335
0.13705419 0.58405626 0.56557226 4278190335
0.16111182 0.60968685 0.48699749 4278190335
0.12330936 0.6193552 0.48486063 4278190335
0.20425685 0.67436248 0.53434932 4278190335
0.081739314 0.59492457 0.51521438 4278190335
0.088599466 0.67472643 0.51398093 4278190335
0.4070676 0.49274313 0.35110757 4278190335
0.4047465 0.40720987 0.3919898 4278190335
0.46761084 0.46296719 0.29357457 4278190335
0.43666524 0.42308617 0.31326666 4278190335
0.4692772 0.35022861 0.34925091 4278190335
0.40385187 0.39493021 0.25058064 4278190335
0.36954564 0.4279702 0.24763578 4278190335
0.43244907 0.36579129 0.25772148 4278190335
0.61659682 0.72081178 0.5805704 4278190335
0.61190552 0.79667979 0.63039434 4278190335
0.53246605 0.79394299 0.62182593 4278190335
0.61518902 0.84811413 0.56075495 4278190335
0.57269764 0.87778997 0.64646143 4278190335
0.54353207 0.72682309 0.61831969 4278190335
0.59176642 0.78416181 0.66677344 4278190335
0.56929314 0.80288935 0.7053383 4278190335
0.74118745 0.57536721 0.63921744 4278190335
0.82981175 0.66215909 0.75187045 4278190335
0.84085888 0.6541633 0.63644063 4278190335
0.8448422 0.61852366 0.66196746 4278190335
0.81527352 0.67540091 0.7222904 4278190335
0.84658563 0.53177595 0.67355132 4278190335
0.809654 0.61069 0.65291184 4278190335
0.81077987 0.61190492 0.69115984 4278190335
0.38966277 0.1934544 0.49810848 4278190335
0.43598512 0.32918933 0.50931549 4278190335
0.36973464 0.19096799 0.48043337 4278190335
0.34530157 0.27348837 0.51097757 4278190335
0.40110743 0.32326892 0.5145157 4278190335
0.3712728 0.21627529 0.39057758 4278190335
0.38289598 0.27365205 0.45375419 4278190335
0.41743904 0.36358973 0.42881346 4278190335
0.11291034 0.050064147 0.16160579 4278190335
0.11105037 0.083973147 0.24375305 4278190335
0.16705614 0.018151807 0.23636055 4278190335
0.11291034 0.050064147 0.16160579 4278190335
0.11291034 0.050064147 0.16160579 4278190335
0.11291034 0.050064147 0.16160579 4278190335
0.11291034 0.050064147 0.16160579 4278190335
0.11291034 0.050064147 0.16160579 4278190335
0.53619599 0.076540031 0.60201436 4278190335
0.55210096 0.073539257 0.54107499 4278190335
0.57947284 0.022456583 0.51638591 4278190335
0.57704073 0.00074395968 0.58484066 4278190335
0.63070023 0.0065162042 0.63551569 4278190335
0.60051566 0.024544211 0.62735188 4278190335
0.62763572 0.026492869 0.61088479 4278190335
0.52241975 0.014499623 0.52893442 4278190335
0.17515609 0.013218384 0.53568071 4278190335
0.16297305 0.04137117 0.49337849 4278190335
0.227688 0.034756348 0.4172731 4278190335
0.26189467 0.089910008 0.54296595 4278190335
0.28222558 0.048034351 0.40615025 4278190335
0.31577885 0.047171313 0.49410668 4278190335
0.24277587 0.025317725 0.48209611 4278190335
0.15860417 0.065472543 0.47620344 4278190335
0.24425295 0.49648994 0.22700672 4278190335
0.17796585 0.45155671 0.27203882 4278190335
0.25397 0.45731378 0.13067184 4278190335
0.21945623 0.50142306 0.20753403 4278190335
0.27813786 0.4512727 0.15307844 4278190335
0.19288455 0.46209347 0.26036295 4278190335
0.18766923 0.44062334 0.27380559 4278190335
0.24425295 0.49648994 0.22700672 4278190335
0.76841736 0.76855713 0.3890512 4278190335
0.78145993 0.84318322 0.44514093 4278190335
0.86359054 0.82252568 0.432841 4278190335
0.77407295 0.78163564 0.49775821 4278190335
0.82645833 0.77775544 0.46634543 4278190335
0.83636612 0.77962458 0.41469237 4278190335
0.76841736 0.76855713 0.3890512 4278190335
0.76841736 0.76855713 0.3890512 4278190335
0.56788647 0.17292751 0.092713252 4278190335
0.64474726 0.20237568 0.065593146 4278190335
0.6161688 0.13166678 0.057126794 4278190335
0.62996322 0.24476534 0.079752907 4278190335
0.56049824 0.18534945 0.092484035 4278190335
0.59528095 0.25223887 0.0074339174 4278190335
0.60603577 0.22079572 0.027754471 4278190335
0.567509 0.17131011 0.0027980329 4278190335
0.60191208 0.89392793 0.76938969 4278190335
0.62168396 0.95290411 0.69332409 4278190335
0.57658041 0.92150205 0.78888249 4278190335
0.52974391 0.95550996 0.83684641 4278190335
0.52308547 0.94770497 0.77400905 4278190335
0.56427902 0.96257955 0.75807315 4278190335
0.56549722 0.88178366 0.72769243 4278190335
0.60191208 0.89392793 0.76938969 4278190335
0.9729383 0.11941374 0.81803352 4278190335
0.98441881 0.18998501 0.8835994 4278190335
0.95707178 0.12982997 0.82460916 4278190335
0.9729383 0.11941374 0.81803352 4278190335
0.9729383 0.11941374 0.81803352 4278190335
0.9729383 0.11941374 0.81803352 4278190335
0.9729383 0.11941374 0.81803352 4278190335
0.9729383 0.11941374 0.81803352 4278190335
0.44828174 0.015259381 0.17012778 4278190335
0.49838245 0.0022089034 0.24958296 4278190335
0.54500026 0.061508525 0.19675039 4278190335
0.53037059 0.015209268 0.1890112 4278190335
0.43445772 0.056907795 0.2836647 4278190335
0.45110422 0.042461947 0.22990356 4278190335
0.56022942 0.01954372 0.30485687 4278190335
0.56757736 0.068096519 0.24808182 4278190335
0.19112968 0.97671527 0.57588065 4278190335
0.27226678 0.98544657 0.6133734 4278190335
0.26256219 0.93360239 0.69023991 4278190335
0.23022597 0.92655796 0.58239132 4278190335
0.31676501 0.93211114 0.61011332 4278190335
0.26286709 0.91952062 0.5934267 4278190335
0.29471976 0.92711484 0.60604918 4278190335
0.20950429 0.94981712 0.5771845 4278190335
0.94193196 0.41823679 0.33715335 4278190335
0.92182291 0.51626736 0.4290739 4278190335
0.96827322 0.47856438 0.41051486 4278190335
0.94193196 0.41823679 0.33715335 4278190335
0.94193196 0.41823679 0.33715335 4278190335
0.94193196 0.41823679 0.33715335 4278190335
0.94193196 0.41823679 0.33715335 4278190335
0.94193196 0.41823679 0.33715335 4278190335
0.084129825 0.23119444 0.27911964 4278190335
0.078044735 0.27225927 0.35155195 4278190335
0.10966116 0.17407908 0.32499504 4278190335
0.048189968 0.26965424 0.26371813 4278190335
0.052406702 0.24721976 0.21458128 4278190335
0.17064549 0.26198784 0.31800637 4278190335
0.085982144 0.21978553 0.29340509 4278190335
0.084129825 0.23119444 0.27911964 4278190335
0.68473697 0.41832015 0.48801103 4278190335
0.75519574 0.46573186 0.45929965 4278190335
0.76199353 0.40866494 0.42248419 4278190335
0.65848434 0.43470183 0.36995518 4278190335
0.73119336 0.51788795 0.48787779 4278190335
0.78459799 0.41896981 0.44938719 4278190335
0.69697577 0.4772296 0.37067035 4278190335
0.70131153 0.49182138 0.41352674 4278190335
0.23018467 0.27372104 0.8028208 4278190335
0.17514403 0.11738808 0.73423314 4278190335
0.27033088 0.12528907 0.7987479 4278190335
0.18085556 0.21581905 0.72150326 4278190335
0.24894147 0.10684357 0.80973232 4278190335
0.25698712 0.21995886 0.78864956 4278190335
0.22235827 0.14886074 0.7734105 4278190335
0.27957726 0.20786153 0.78437221 4278190335
0.71422982 0.15286024 0.78911811 4278190335
0.76341063 0.14721242 0.80527389 4278190335
0.7238794 0.13255323 0.7332558 4278190335
0.68759954 0.16192909 0.76414806 4278190335
0.76695639 0.20887259 0.7468248 4278190335
0.74618518 0.14068063 0.69639677 4278190335
0.81929433 0.14616205 0.74394739 4278190335
0.85726368 0.24215217 0.76859266 4278190335
0.37901098 0.27921557 0.89382213 4278190335
0.40297744 0.28908554 0.96930873 4278190335
0.40108934 0.22386549 0.92853898 4278190335
0.38491172 0.25038379 0.83773077 4278190335
0.33217785 0.15963444 0.93680537 4278190335
0.42275655 0.13469888 0.89675963 4278190335
0.36041087 0.17638233 0.87006903 4278190335
0.42948464 0.15540668 0.94284636 4278190335
0.23947443 0.02230517 0.83263296 4278190335
0.31947857 0.038864892 0.83244324 4278190335
0.21952339 0.015388984 0.74595422 4278190335
0.23644832 0.00029262493 0.83323783 4278190335
0.18929397 0.020056022 0.75074714 4278190335
0.27475393 0.045056805 0.80651671 4278190335
0.18462878 0.054327223 0.87634611 4278190335
0.2475806 0.071997829 0.857072 4278190335
0.14593507 0.36669254 0.04183244 4278190335
0.27210754 0.44410539 0.097663842 4278190335
0.21252568 0.34050539 0.069149353 4278190335
0.22114271 0.38513505 0.059670754 4278190335
0.17253937 0.35991719 0.12434965 4278190335
0.3144201 0.38984513 0.093240425 4278190335
0.2680673 0.37579846 0.020050569 4278190335
0.17606129 0.43789536 0.069781713 4278190335
0.0059278724 0.27627063 0.45962125 4278190335
0.064017691 0.29182693 0.49960667 4278190335
0.052986305 0.2829352 0.49147576 4278190335
0.03855959 0.26073703 0.50916529 4278190335
0.027477888 0.31017187 0.47283548 4278190335
0.0059278724 0.27627063 0.45962125 4278190335
0.0059278724 0.27627063 0.45962125 4278190335
0.0059278724 0.27627063 0.45962125 4278190335
0.27376106 0.9000203 0.45277947 4278190335
0.38555938 0.82926309 0.43675908 4278190335
0.31609869 0.90560776 0.4187443 4278190335
0.33034101 0.91244465 0.41875505 4278190335
0.32796302 0.88855428 0.48221171 4278190335
0.28605086 0.87429231 0.48656306 4278190335
0.30635133 0.86525387 0.47452244 4278190335
0.36395639 0.92984968 0.50600058 4278190335
0.84869409 0.38075671 0.075053647 4278190335
0.90977454 0.39933062 0.11825846 4278190335
0.81722724 0.5101676 0.038292017 4278190335
0.85774446 0.41726533 0.14587247 4278190335
0.90099615 0.42838982 0.10813903 4278190335
0.9045344 0.37515065 0.068251811 4278190335
0.88485795 0.44492352 0.11453354 4278190335
0.87233162 0.41666809 0.15663114 4278190335
0.039939255 0.89267582 0.15086886 4278190335
0.11618817 0.79083079 0.1102246 4278190335
0.0711108 0.82531506 0.16289108 4278190335
0.12330385 0.799815 0.15860982 4278190335
0.040921759 0.75269836 0.11516881 4278190335
0.057993136 0.74656296 0.12937707 4278190335
0.01232542 0.82899606 0.14244887 4278190335
0.091606371 0.73039198 0.144447 4278190335
0.70136189 0.0092558935 0.248317 4278190335
0.73079461 0.038259313 0.29471856 4278190335
0.82661206 0.025390552 0.24430449 4278190335
0.78179014 0.040697411 0.20973508 4278190335
0.73698848 0.04687782 0.24446927 4278190335
0.78263223 0.04917267 0.2379275 4278190335
0.79728484 0.0034238659 0.26211134 4278190335
0.72672635 0.025299134 0.22228047 4278190335
0.81515646 0.14085537 0.90965325 4278190335
0.75186145 0.10075247 0.95937312 4278190335
0.8018201 0.21399249 0.99182594 4278190335
0.78303432 0.18079306 0.95595849 4278190335
0.73943579 0.21232212 0.92007124 4278190335
0.7227574 0.20916761 0.92750627 4278190335
0.74084592 0.12554841 0.92805427 4278190335
0.81515646 0.14085537 0.90965325 4278190335
0.70612937 0.33398452 0.56475502 4278190335
0.69723451 0.33207411 0.55852419 4278190335
0.81642216 0.22826947 0.49510613 4278190335
0.70201898 0.26916412 0.46522713 4278190335
0.70857173 0.24682766 0.52419847 4278190335
0.78025848 0.25658527 0.57001734 4278190335
0.72606462 0.25864208 0.47933999 4278190335
0.73846358 0.30916932 0.57871062 4278190335
0.11919578 0.90792263 0.29180387 4278190335
0.123322 0.98691869 0.31656146 4278190335
0.1545725 0.95512861 0.30983654 4278190335
0.095139422 0.94812965 0.22128266 4278190335
0.17685862 0.97018981 0.32269955 4278190335
0.084308103 0.97920346 0.29717967 4278190335
0.034783494 0.97740507 0.27557179 4278190335
0.1306396 0.95314813 0.22871448 4278190335
0.19647796 0.15916991 0.10168593 4278190335
0.13185264 0.14320806 0.03198725 4278190335
0.11024261 0.14948703 0.093221679 4278190335
0.17552212 0.15461308 0.16987745 4278190335
0.18469973 0.18132845 0.17832074 4278190335
0.19647796 0.15916991 0.10168593 4278190335
0.19647796 0.15916991 0.10168593 4278190335
0.19647796 0.15916991 0.10168593 4278190335
0.1372826 0.37621164 0.68646479 4278190335
0.18615629 0.40872759 0.65615398 4278190335
0.2307914 0.43422553 0.58878058 4278190335
0.09873195 0.44152683 0.63507527 4278190335
0.16580389 0.34466392 0.6755051 4278190335
0.19547124 0.48091838 0.60361898 4278190335
0.1059937 0.44229084 0.69397968 4278190335
0.14470714 0.39901316 0.68501455 4278190335
0.52884316 0.38949445 0.75129062 4278190335
0.5254119 0.3185595 0.72561657 4278190335
0.58599722 0.39973149 0.81473833 4278190335
0.50502735 0.36889875 0.79558516 4278190335
0.51076925 0.32647854 0.67860156 4278190335
0.61460435 0.34027559 0.77659297 4278190335
0.55554098 0.40088993 0.82111782 4278190335
0.61714369 0.41214311 0.6854651 4278190335
0.32685578 0.16566256 0.2897912 4278190335
0.32154402 0.15040365 0.15203935 4278190335
0.33938643 0.10599175 0.23598288 4278190335
0.40152189 0.037742805 0.23565157 4278190335
0.31162509 0.10017836 0.27960798 4278190335
0.31977046 0.016911389 0.27307847 4278190335
0.3747648 0.18280856 0.26062205 4278190335
0.34678546 0.17983963 0.21223728 4278190335
0.78056771 0.39116758 0.27404231 4278190335
0.77690536 0.36890772 0.18779451 4278190335
0.75020427 0.38672894 0.2313789 4278190335
0.80421305 0.28040144 0.20480584 4278190335
0.76821816 0.38771433 0.26079431 4278190335
0.793881 0.37391096 0.23636609 4278190335
0.78813118 0.45385003 0.20188002 4278190335
0.75139904 0.32108787 0.22838162 4278190335
0.56522769 0.098233357 0.97664273 4278190335
0.58751094 0.081370905 0.90561491 4278190335
0.49627566 0.098262325 0.9537763 4278190335
0.55795318 0.14559841 0.95291698 4278190335
0.59409928 0.058480773 0.96586972 4278190335
0.56537879 0.13204002 0.93404502 4278190335
0.51535034 0.13641497 0.90187949 4278190335
0.56522769 0.098233357 0.97664273 4278190335
0.33146799 0.98734534 0.20640972 4278190335
0.39072171 0.89192516 0.20608895 4278190335
0.31917697 0.90878582 0.22557119 4278190335
0.34324318 0.89870781 0.21790172 4278190335
0.35697594 0.9861778 0.16362612 4278190335
0.33696741 0.88561845 0.15375581 4278190335
0.38376972 0.95085472 0.26491085 4278190335
0.37338144 0.90141857 0.17153089 4278190335
0.24959296 0.68294168 0.67489505 4278190335
0.21574581 0.73975915 0.73331237 4278190335
0.18972793 0.67429012 0.76544899 4278190335
0.11906919 0.79613447 0.70842683 4278190335
0.18279725 0.73194534 0.7221204 4278190335
0.14039424 0.72999585 0.72064936 4278190335
0.17903551 0.77155536 0.64421958 4278190335
0.15066434 0.78841931 0.73252088 4278190335
0.60469669 0.31944102 0.10703507 4278190335
0.61638647 0.28037462 0.1700439 4278190335
0.59840471 0.3090879 0.1859605 4278190335
0.64551318 0.39131516 0.065767057 4278190335
0.6717903 0.28085014 0.094490878 4278190335
0.60469669 0.31944102 0.10703507 4278190335
0.60469669 0.31944102 0.10703507 4278190335
0.60469669 0.31944102 0.10703507 4278190335
0.1483268 0.968009 0.96278721 4278190335
0.10363017 0.93945742 0.91247404 4278190335
0.1258437 0.95858711 0.9003101 4278190335
0.13626605 0.85883057 0.9830687 4278190335
0.098767824 0.91571492 0.94557798 4278190335
0.12022973 0.95564127 0.99508274 4278190335
