# .PCD v0.7 - Point Cloud Data file format
VERSION 0.7
FIELDS x y z rgb
SIZE 4 4 4 4
TYPE F F F U
COUNT 1 1 1 1
WIDTH 1029
HEIGHT 1
VIEWPOINT 0 0 0 1 0 0 0
POINTS 1029
DATA ascii
-0.45848766 0.23281009 0.094230436 4278190335
-0.48411849 -0.22854768 0.52995723 4278190335
-0.45848766 -0.049130749 -0.26460341 4278190335
-0.48411849 0.0021312388 0.042968452 4278190335
-0.56101149 0.15591714 -0.059555493 4278190335
-0.43285656 0.027762203 0.24801637 4278190335
-0.38159463 0.1815481 0.042968452 4278190335
-0.48411849 0.51475102 -0.26460341 4278190335
-0.45848766 0.61727488 -0.23897241 4278190335
-0.40722549 -0.27980965 0.42743328 4278190335
-0.56101149 0.1815481 0.042968452 4278190335
-0.45848766 0.15591714 -0.16207944 4278190335
-0.43285656 -0.12602369 0.042968452 4278190335
-0.45848766 0.053393167 -0.23897241 4278190335
-0.43285656 -0.074761771 0.22238538 4278190335
-0.38159463 0.0021312388 -0.26460341 4278190335
-0.48411849 0.25844109 -0.16207944 4278190335
-0.48411849 0.15591714 0.24801637 4278190335
-0.43285656 -0.12602369 0.35054028 4278190335
-0.48411849 0.13028617 0.042968452 4278190335
-0.48411849 0.079024188 0.17112339 4278190335
-0.50974959 -0.049130749 0.17112339 4278190335
-0.56101149 0.2071791 -0.26460341 4278190335
-0.38159463 -0.25417864 0.58121914 4278190335
-0.48411849 -0.15165472 -0.23897241 4278190335
-0.38159463 -0.049130749 0.094230436 4278190335
-0.38159463 0.027762203 0.35054028 4278190335
-0.48411849 -0.48485756 -0.16207944 4278190335
-0.56101149 -0.20291671 0.50432622 4278190335
-0.50974959 0.23281009 -0.085186489 4278190335
-0.48411849 0.15591714 0.35054028 4278190335
-0.43285656 0.027762203 -0.033924513 4278190335
-0.45848766 -0.56175053 0.042968452 4278190335
-0.48411849 -0.049130749 -0.033924513 4278190335
-0.56101149 0.48911998 -0.23897241 4278190335
-0.53538042 -0.023499785 0.42743328 4278190335
-0.45848766 0.15591714 0.1198614 4278190335
-0.38159463 0.079024188 0.17112339 4278190335
-0.56101149 0.079024188 -0.21334143 4278190335
-0.38159463 0.61727488 -0.26460341 4278190335
-0.53538042 -0.20291671 0.42743328 4278190335
-0.40722549 -0.15165472 0.42743328 4278190335
-0.45848766 -0.30544063 0.37617132 4278190335
-0.45848766 0.30970308 0.042968452 4278190335
-0.56101149 0.15591714 0.24801637 4278190335
-0.48411849 -0.56175053 0.19675438 4278190335
-0.48411849 -0.40796453 -0.16207944 4278190335
-0.56101149 0.28407207 -0.16207944 4278190335
-0.40722549 -0.48485756 -0.16207944 4278190335
-0.56101149 -0.049130749 -0.13644846 4278190335
-0.43285656 -0.12602369 -0.033924513 4278190335
-0.53538042 0.10465515 0.37617132 4278190335
-0.45848766 -0.17728569 0.47869521 4278190335
-0.50974959 -0.33107165 0.63248122 4278190335
-0.56101149 -0.049130749 0.017337458 4278190335
-0.48411849 0.36096501 -0.23897241 4278190335
-0.45848766 -0.27980965 -0.21334143 4278190335
-0.43285656 0.079024188 -0.16207944 4278190335
-0.38159463 -0.17728569 -0.23897241 4278190335
-0.38159463 -0.049130749 -0.085186489 4278190335
-0.38159463 -0.049130749 0.17112339 4278190335
-0.48411849 -0.049130749 -0.13644846 4278190335
-0.15091585 0.027762203 0.29927835 4278190335
-0.33033273 0.69416785 -0.29023439 4278190335
-0.27907056 -0.56175053 -0.21334143 4278190335
-0.35596356 -0.56175053 0.40180227 4278190335
-0.35596356 0.079024188 -0.26460341 4278190335
-0.12528476 -0.27980965 0.60685015 4278190335
-0.25343969 0.30970308 0.042968452 4278190335
-0.12528476 -0.20291671 -0.18771043 4278190335
-0.35596356 -0.074761771 0.042968452 4278190335
-0.15091585 0.412227 -0.26460341 4278190335
-0.12528476 -0.56175053 0.19675438 4278190335
-0.35596356 -0.12602369 0.47869521 4278190335
-0.35596356 -0.53611946 0.042968452 4278190335
-0.12528476 0.079024188 0.042968452 4278190335
-0.35596356 -0.38233358 0.58121914 4278190335
-0.35596356 -0.30544063 -0.21334143 4278190335
-0.12528476 -0.48485756 0.47869521 4278190335
-0.12528476 0.053393167 -0.21334143 4278190335
-0.35596356 0.30970308 -0.23897241 4278190335
-0.35596356 0.13028617 0.14549239 4278190335
-0.22780862 0.053393167 0.52995723 4278190335
-0.35596356 -0.049130749 0.27364734 4278190335
-0.12528476 -0.12602369 0.45306426 4278190335
-0.12528476 -0.40796453 -0.21334143 4278190335
-0.15091585 0.61727488 -0.23897241 4278190335
-0.27907056 -0.049130749 -0.13644846 4278190335
-0.35596356 0.51475102 -0.23897241 4278190335
-0.17654693 0.23281009 -0.23897241 4278190335
-0.20217754 -0.049130749 0.14549239 4278190335
-0.15091585 -0.074761771 -0.033924513 4278190335
-0.17654693 -0.53611946 0.042968452 4278190335
-0.30470163 -0.56175053 0.19675438 4278190335
-0.35596356 0.027762203 0.42743328 4278190335
-0.35596356 -0.15165472 -0.23897241 4278190335
-0.12528476 -0.56175053 -0.18771043 4278190335
-0.25343969 -0.22854768 0.52995723 4278190335
-0.12528476 -0.27980965 0.45306426 4278190335
-0.20217754 0.10465515 0.17112339 4278190335
-0.27907056 0.053393167 0.042968452 4278190335
-0.25343969 -0.074761771 0.37617132 4278190335
-0.17654693 -0.074761771 -0.23897241 4278190335
-0.25343969 -0.074761771 0.58121914 4278190335
-0.15091585 0.23281009 0.094230436 4278190335
-0.33033273 -0.43359563 -0.18771043 4278190335
-0.27907056 -0.48485756 0.47869521 4278190335
-0.12528476 0.053393167 0.42743328 4278190335
-0.20217754 -0.40796453 0.55558819 4278190335
-0.20217754 -0.56175053 0.40180227 4278190335
-0.22780862 -0.30544063 -0.18771043 4278190335
-0.33033273 0.2071791 0.042968452 4278190335
-0.25343969 -0.30544063 0.63248122 4278190335
-0.27907056 0.412227 -0.23897241 4278190335
-0.35596356 -0.27980965 0.47869521 4278190335
-0.22780862 0.10465515 -0.26460341 4278190335
-0.27907056 0.027762203 0.22238538 4278190335
-0.22780862 0.51475102 -0.26460341 4278190335
-0.30470163 0.2071791 -0.26460341 4278190335
-0.30470163 -0.049130749 -0.26460341 4278190335
-0.22780862 0.15591714 0.042968452 4278190335
-0.25343969 -0.20291671 -0.23897241 4278190335
-0.22780862 -0.45922658 -0.21334143 4278190335
-0.12528476 -0.049130749 -0.13644846 4278190335
-0.27907056 0.027762203 0.35054028 4278190335
-0.33033273 -0.049130749 0.14549239 4278190335
-0.25343969 0.61727488 -0.29023439 4278190335
-0.25343969 -0.049130749 0.017337458 4278190335
-0.25343969 -0.15165472 0.45306426 4278190335
-0.12528476 -0.049130749 0.22238538 4278190335
-0.12528476 0.027762203 0.14549239 4278190335
-0.12528476 -0.049130749 0.068599448 4278190335
-0.17654693 -0.049130749 0.50432622 4278190335
-0.35596356 -0.049130749 -0.059555493 4278190335
-0.35596356 -0.27980965 0.60685015 4278190335
-0.22780862 -0.049130749 0.27364734 4278190335
-0.25343969 0.30970308 -0.26460341 4278190335
-0.12528476 -0.30544063 -0.21334143 4278190335
-0.35596356 -0.074761771 0.37617132 4278190335
-0.35596356 0.30970308 0.042968452 4278190335
-0.35596356 -0.53611946 -0.16207944 4278190335
-0.17654693 0.69416785 -0.29023439 4278190335
-0.27907056 0.027762203 -0.21334143 4278190335
-0.25343969 0.0021312388 0.45306426 4278190335
-0.15091585 -0.20291671 0.50432622 4278190335
-0.12528476 -0.049130749 0.35054028 4278190335
-0.35596356 0.61727488 -0.23897241 4278190335
-0.27907056 0.1815481 0.1198614 4278190335
-0.33033273 -0.023499785 0.50432622 4278190335
-0.35596356 0.027762203 0.094230436 4278190335
-0.20217754 -0.10039274 -0.11081748 4278190335
-0.15091585 0.30970308 0.042968452 4278190335
-0.35596356 0.10465515 0.042968452 4278190335
-0.35596356 -0.049130749 -0.18771043 4278190335
-0.20217754 0.027762203 0.094230436 4278190335
-0.15091585 0.30970308 -0.26460341 4278190335
-0.35596356 -0.45922658 0.50432622 4278190335
-0.15091585 0.15591714 -0.26460341 4278190335
-0.27907056 -0.12602369 -0.21334143 4278190335
-0.22780862 -0.15165472 0.55558819 4278190335
-0.33033273 -0.20291671 0.50432622 4278190335
-0.12528476 -0.38233358 0.58121914 4278190335
-0.20217754 0.027762203 0.37617132 4278190335
-0.27907056 -0.56175053 0.042968452 4278190335
-0.25343969 -0.38233358 -0.21334143 4278190335
-0.20217754 0.027762203 -0.23897241 4278190335
-0.17654693 0.027762203 0.22238538 4278190335
-0.15091585 -0.48485756 -0.18771043 4278190335
-0.35596356 0.027762203 0.19675438 4278190335
-0.35596356 0.412227 -0.26460341 4278190335
-0.35596356 0.027762203 0.32490933 4278190335
-0.30470163 0.053393167 0.50432622 4278190335
-0.15091585 0.48911998 -0.23897241 4278190335
-0.27907056 0.027762203 0.1198614 4278190335
-0.33033273 -0.22854768 -0.23897241 4278190335
-0.25343969 0.69416785 -0.26460341 4278190335
-0.17654693 -0.33107165 0.63248122 4278190335
-0.17654693 -0.15165472 -0.21334143 4278190335
-0.17654693 -0.10039274 0.40180227 4278190335
-0.25343969 -0.074761771 -0.059555493 4278190335
-0.20217754 -0.22854768 -0.18771043 4278190335
-0.12528476 -0.023499785 0.45306426 4278190335
-0.20217754 -0.25417864 0.58121914 4278190335
-0.27907056 -0.40796453 0.55558819 4278190335
-0.27907056 0.10465515 0.17112339 4278190335
-0.20217754 -0.56175053 -0.21334143 4278190335
-0.27907056 -0.56175053 0.40180227 4278190335
-0.22780862 -0.56175053 0.19675438 4278190335
-0.25343969 0.23281009 0.042968452 4278190335
-0.12528476 -0.023499785 -0.21334143 4278190335
-0.099653684 -0.45922658 0.29927835 4278190335
0.0028701692 0.69416785 -0.26460341 4278190335
-0.074022599 -0.023499785 -0.26460341 4278190335
0.0028701692 0.1815481 0.32490933 4278190335
-0.074022599 -0.56175053 -0.23897241 4278190335
-0.022760917 0.33533403 -0.059555493 4278190335
0.028501254 -0.30544063 0.63248122 4278190335
-0.074022599 -0.12602369 0.1198614 4278190335
-0.099653684 -0.10039274 0.42743328 4278190335
-0.074022599 -0.40796453 0.017337458 4278190335
0.028501254 -0.27980965 -0.21334143 4278190335
-0.12528476 0.463489 -0.26460341 4278190335
0.0028701692 0.10465515 0.042968452 4278190335
-0.12528476 0.2071791 -0.23897241 4278190335
0.028501254 -0.48485756 0.47869521 4278190335
0.0028701692 -0.27980965 0.40180227 4278190335
-0.074022599 -0.15165472 -0.085186489 4278190335
0.028501254 -0.049130749 0.27364734 4278190335
-0.12528476 0.23281009 0.094230436 4278190335
-0.074022599 -0.56175053 0.14549239 4278190335
-0.074022599 -0.30544063 0.19675438 4278190335
0.0028701692 0.33533403 -0.26460341 4278190335
-0.074022599 0.079024188 -0.11081748 4278190335
-0.074022599 0.079024188 0.19675438 4278190335
-0.074022599 -0.56175053 -0.059555493 4278190335
-0.074022599 -0.40796453 -0.16207944 4278190335
-0.099653684 -0.40796453 0.55558819 4278190335
-0.099653684 -0.22854768 0.52995723 4278190335
0.028501254 -0.049130749 -0.0082935346 4278190335
-0.074022599 0.053393167 0.40180227 4278190335
-0.099653684 0.38659602 0.068599448 4278190335
-0.074022599 -0.17728569 -0.26460341 4278190335
-0.074022599 -0.17728569 0.29927835 4278190335
-0.12528476 0.61727488 -0.23897241 4278190335
0.0028701692 0.10465515 -0.23897241 4278190335
-0.074022599 -0.25417864 0.042968452 4278190335
0.0028701692 0.54038197 -0.26460341 4278190335
0.028501254 -0.10039274 -0.18771043 4278190335
-0.074022599 -0.56175053 0.40180227 4278190335
-0.099653684 0.0021312388 0.042968452 4278190335
0.0028701692 0.28407207 0.068599448 4278190335
0.028501254 -0.15165472 0.45306426 4278190335
-0.074022599 0.2071791 -0.033924513 4278190335
-0.099653684 -0.049130749 0.22238538 4278190335
-0.099653684 -0.33107165 0.32490933 4278190335
-0.099653684 -0.27980965 -0.18771043 4278190335
-0.074022599 -0.43359563 0.17112339 4278190335
0.028501254 -0.48485756 -0.18771043 4278190335
0.028501254 -0.049130749 0.14549239 4278190335
-0.12528476 0.33533403 -0.26460341 4278190335
-0.099653684 -0.30544063 0.63248122 4278190335
0.0028701692 0.1815481 0.14549239 4278190335
-0.022760917 -0.40796453 0.40180227 4278190335
-0.074022599 0.28407207 -0.16207944 4278190335
-0.099653684 -0.049130749 -0.13644846 4278190335
0.0028701692 -0.049130749 0.40180227 4278190335
-0.099653684 0.13028617 0.29927835 4278190335
-0.074022599 -0.30544063 -0.059555493 4278190335
-0.12528476 0.13028617 0.042968452 4278190335
-0.074022599 -0.3567026 -0.26460341 4278190335
-0.099653684 -0.48485756 0.47869521 4278190335
0.028501254 -0.40796453 0.55558819 4278190335
-0.099653684 -0.53611946 0.042968452 4278190335
-0.074022599 -0.56175053 0.27364734 4278190335
0.028501254 -0.22854768 0.52995723 4278190335
-0.074022599 -0.023499785 0.32490933 4278190335
-0.022760917 0.43785802 -0.23897241 4278190335
-0.074022599 -0.20291671 0.42743328 4278190335
0.0028701692 0.0021312388 -0.18771043 4278190335
-0.099653684 0.079024188 -0.21334143 4278190335
0.0028701692 0.2071791 -0.21334143 4278190335
-0.074022599 -0.10039274 0.017337458 4278190335
-0.074022599 0.1815481 -0.13644846 4278190335
0.0028701692 0.38659602 0.042968452 4278190335
-0.074022599 -0.45922658 -0.26460341 4278190335
0.028501254 -0.38233358 -0.18771043 4278190335
-0.074022599 -0.20291671 0.19675438 4278190335
0.028501254 -0.56175053 0.40180227 4278190335
-0.022760917 0.027762203 0.1198614 4278190335
-0.099653684 0.15591714 0.14549239 4278190335
-0.022760917 -0.20291671 -0.18771043 4278190335
-0.074022599 0.30970308 0.017337458 4278190335
-0.048392002 0.1815481 0.068599448 4278190335
-0.074022599 -0.33107165 0.094230436 4278190335
-0.074022599 -0.51048851 -0.16207944 4278190335
-0.074022599 -0.45922658 -0.059555493 4278190335
-0.099653684 -0.10039274 -0.21334143 4278190335
0.028501254 -0.049130749 -0.26460341 4278190335
0.0028701692 -0.049130749 -0.11081748 4278190335
0.0028701692 0.10465515 0.37617132 4278190335
-0.074022599 -0.38233358 0.24801637 4278190335
-0.074022599 0.0021312388 -0.059555493 4278190335
0.0028701692 0.33533403 -0.16207944 4278190335
-0.074022599 0.079024188 -0.0082935346 4278190335
-0.022760917 -0.049130749 0.068599448 4278190335
-0.074022599 -0.25417864 0.35054028 4278190335
-0.022760917 0.15591714 0.22238538 4278190335
-0.099653684 0.69416785 -0.26460341 4278190335
-0.022760917 0.61727488 -0.23897241 4278190335
-0.048392002 -0.48485756 0.37617132 4278190335
0.0028701692 -0.56175053 -0.18771043 4278190335
-0.099653684 0.54038197 -0.26460341 4278190335
-0.099653684 -0.10039274 0.29927835 4278190335
-0.099653684 -0.27980965 0.42743328 4278190335
-0.099653684 -0.049130749 0.1198614 4278190335
-0.099653684 0.053393167 0.32490933 4278190335
-0.074022599 -0.12602369 0.22238538 4278190335
-0.074022599 -0.22854768 -0.11081748 4278190335
-0.074022599 -0.023499785 0.42743328 4278190335
-0.074022599 -0.17728569 -0.0082935346 4278190335
-0.074022599 -0.22854768 0.1198614 4278190335
-0.074022599 -0.45922658 0.094230436 4278190335
-0.074022599 -0.38233358 -0.085186489 4278190335
-0.099653684 -0.17728569 -0.18771043 4278190335
-0.022760917 -0.12602369 0.40180227 4278190335
-0.022760917 -0.3567026 0.60685015 4278190335
-0.074022599 0.25844109 -0.26460341 4278190335
-0.074022599 0.15591714 -0.26460341 4278190335
0.028501254 -0.3567026 0.42743328 4278190335
-0.022760917 -0.25417864 0.58121914 4278190335
-0.074022599 -0.27980965 0.27364734 4278190335
-0.099653684 0.027762203 0.14549239 4278190335
-0.099653684 0.027762203 0.24801637 4278190335
0.0028701692 0.10465515 0.17112339 4278190335
-0.074022599 -0.074761771 -0.059555493 4278190335
0.0028701692 0.25844109 0.14549239 4278190335
-0.074022599 0.10465515 0.094230436 4278190335
-0.074022599 0.30970308 0.094230436 4278190335
0.23354895 -0.3567026 0.42743328 4278190335
0.028501254 0.69416785 -0.26460341 4278190335
0.18228728 -0.049130749 -0.26460341 4278190335
0.028501254 0.1815481 0.32490933 4278190335
0.054132339 -0.56175053 -0.18771043 4278190335
0.20791787 0.36096501 -0.033924513 4278190335
0.23354895 -0.049130749 0.1198614 4278190335
0.15665619 -0.049130749 0.52995723 4278190335
0.028501254 0.23281009 -0.23897241 4278190335
0.23354895 -0.33107165 -0.16207944 4278190335
0.028501254 0.13028617 0.042968452 4278190335
0.054132339 -0.56175053 0.40180227 4278190335
0.054132339 -0.27980965 0.60685015 4278190335
0.15665619 0.463489 -0.26460341 4278190335
0.23354895 0.2071791 0.17112339 4278190335
0.079762936 -0.049130749 0.29927835 4278190335
0.23354895 0.10465515 0.37617132 4278190335
0.054132339 -0.049130749 -0.085186489 4278190335
0.23354895 0.15591714 -0.21334143 4278190335
0.054132339 -0.22854768 -0.21334143 4278190335
0.028501254 0.33533403 0.094230436 4278190335
0.20791787 0.64290595 -0.23897241 4278190335
0.23354895 -0.56175053 0.45306426 4278190335
0.23354895 -0.53611946 -0.16207944 4278190335
0.054132339 -0.38233358 0.45306426 4278190335
0.028501254 0.36096501 -0.085186489 4278190335
0.054132339 -0.17728569 0.45306426 4278190335
0.028501254 0.053393167 -0.23897241 4278190335
0.054132339 -0.049130749 0.094230436 4278190335
0.23354895 -0.17728569 0.42743328 4278190335
0.23354895 -0.049130749 -0.059555493 4278190335
0.20791787 0.10465515 0.042968452 4278190335
0.054132339 0.053393167 0.42743328 4278190335
0.079762936 -0.38233358 -0.16207944 4278190335
0.18228728 0.30970308 -0.21334143 4278190335
0.10539402 0.079024188 0.17112339 4278190335
0.23354895 -0.17728569 -0.18771043 4278190335
0.23354895 -0.049130749 0.29927835 4278190335
0.028501254 0.38659602 -0.23897241 4278190335
0.028501254 0.54038197 -0.23897241 4278190335
0.13102511 -0.48485756 0.52995723 4278190335
0.028501254 0.2071791 0.17112339 4278190335
0.13102511 0.23281009 0.068599448 4278190335
0.15665619 -0.22854768 0.52995723 4278190335
0.15665619 0.15591714 0.27364734 4278190335
0.054132339 -0.074761771 -0.21334143 4278190335
0.15665619 0.053393167 -0.18771043 4278190335
0.20791787 0.33533403 0.094230436 4278190335
0.15665619 -0.3567026 0.52995723 4278190335
0.23354895 0.0021312388 0.45306426 4278190335
0.13102511 -0.10039274 0.40180227 4278190335
0.18228728 -0.43359563 -0.18771043 4278190335
0.13102511 -0.049130749 0.19675438 4278190335
0.15665619 0.0021312388 0.042968452 4278190335
0.10539402 0.36096501 0.017337458 4278190335
0.10539402 0.15591714 -0.21334143 4278190335
0.13102511 0.33533403 -0.11081748 4278190335
0.10539402 0.61727488 -0.26460341 4278190335
0.15665619 -0.049130749 -0.13644846 4278190335
0.15665619 -0.25417864 -0.18771043 4278190335
0.13102511 -0.15165472 -0.21334143 4278190335
0.079762936 -0.27980965 0.47869521 4278190335
0.20791787 -0.45922658 0.45306426 4278190335
0.23354895 0.2071791 0.042968452 4278190335
0.028501254 -0.049130749 0.42743328 4278190335
0.054132339 -0.38233358 0.58121914 4278190335
0.13102511 0.1815481 0.17112339 4278190335
0.20791787 0.54038197 -0.21334143 4278190335
0.028501254 0.23281009 0.042968452 4278190335
0.13102511 0.10465515 0.37617132 4278190335
0.028501254 0.027762203 0.042968452 4278190335
0.054132339 0.13028617 0.24801637 4278190335
0.054132339 -0.45922658 -0.21334143 4278190335
0.18228728 0.053393167 0.1198614 4278190335
0.15665619 -0.56175053 -0.21334143 4278190335
0.10539402 0.33533403 -0.26460341 4278190335
0.23354895 -0.074761771 -0.18771043 4278190335
0.028501254 0.027762203 0.14549239 4278190335
0.054132339 -0.48485756 0.45306426 4278190335
0.23354895 0.1815481 0.32490933 4278190335
0.23354895 0.13028617 0.22238538 4278190335
0.15665619 -0.56175053 0.40180227 4278190335
0.10539402 0.079024188 0.042968452 4278190335
0.13102511 -0.049130749 -0.033924513 4278190335
0.20791787 -0.10039274 0.47869521 4278190335
0.20791787 -0.27980965 0.47869521 4278190335
0.20791787 0.412227 -0.21334143 4278190335
0.10539402 -0.12602369 0.50432622 4278190335
0.10539402 0.0021312388 0.47869521 4278190335
0.15665619 0.23281009 -0.23897241 4278190335
0.10539402 -0.56175053 0.50432622 4278190335
0.054132339 0.463489 -0.26460341 4278190335
0.13102511 0.69416785 -0.23897241 4278190335
0.20791787 -0.074761771 0.042968452 4278190335
0.054132339 0.33533403 -0.16207944 4278190335
0.10539402 0.25844109 0.14549239 4278190335
0.10539402 0.15591714 0.094230436 4278190335
0.079762936 0.0021312388 -0.18771043 4278190335
0.23354895 0.027762203 -0.21334143 4278190335
0.20791787 0.36096501 -0.13644846 4278190335
0.15665619 -0.023499785 0.32490933 4278190335
0.20791787 -0.074761771 0.37617132 4278190335
0.15665619 -0.3567026 -0.18771043 4278190335
0.054132339 -0.30544063 -0.18771043 4278190335
0.028501254 0.33533403 -0.0082935346 4278190335
0.13102511 0.54038197 -0.26460341 4278190335
0.028501254 0.13028617 0.14549239 4278190335
0.054132339 -0.15165472 -0.18771043 4278190335
0.054132339 -0.049130749 0.22238538 4278190335
0.20791787 -0.049130749 0.22238538 4278190335
0.23354895 -0.25417864 -0.21334143 4278190335
0.028501254 0.13028617 -0.21334143 4278190335
0.23354895 0.027762203 0.042968452 4278190335
0.028501254 0.30970308 -0.26460341 4278190335
0.10539402 0.079024188 -0.23897241 4278190335
0.18228728 0.15591714 0.1198614 4278190335
0.13102511 -0.48485756 -0.16207944 4278190335
0.13102511 -0.51048851 0.45306426 4278190335
0.13102511 0.38659602 -0.21334143 4278190335
0.028501254 0.10465515 0.37617132 4278190335
0.15665619 0.053393167 0.42743328 4278190335
0.13102511 0.30970308 0.094230436 4278190335
0.054132339 -0.049130749 0.017337458 4278190335
0.13102511 -0.049130749 0.1198614 4278190335
0.23354895 0.23281009 -0.21334143 4278190335
0.028501254 0.61727488 -0.23897241 4278190335
0.054132339 -0.22854768 0.52995723 4278190335
0.18228728 0.38659602 0.042968452 4278190335
-0.56101149 -0.56175053 -0.16207944 4294901760
-0.56101149 -0.56175053 -0.13644846 4294901760
-0.56101149 -0.56175053 0.042968452 4294901760
-0.56101149 -0.56175053 0.19675438 4294901760
-0.56101149 -0.56175053 0.40180227 4294901760
-0.56101149 -0.53611946 -0.16207944 4294901760
-0.56101149 -0.53611946 -0.13644846 4294901760
-0.56101149 -0.53611946 0.042968452 4294901760
-0.56101149 -0.53611946 0.42743328 4294901760
-0.56101149 -0.51048851 -0.16207944 4294901760
-0.56101149 -0.51048851 -0.13644846 4294901760
-0.56101149 -0.51048851 0.45306426 4294901760
-0.56101149 -0.48485756 -0.18771043 4294901760
-0.56101149 -0.48485756 -0.16207944 4294901760
-0.56101149 -0.48485756 0.47869521 4294901760
-0.56101149 -0.45922658 -0.18771043 4294901760
-0.56101149 -0.45922658 -0.16207944 4294901760
-0.56101149 -0.45922658 0.50432622 4294901760
-0.56101149 -0.43359563 -0.18771043 4294901760
-0.56101149 -0.43359563 -0.16207944 4294901760
-0.56101149 -0.43359563 0.52995723 4294901760
-0.56101149 -0.40796453 -0.18771043 4294901760
-0.56101149 -0.40796453 -0.16207944 4294901760
-0.56101149 -0.40796453 0.55558819 4294901760
-0.56101149 -0.38233358 -0.18771043 4294901760
-0.56101149 -0.38233358 -0.16207944 4294901760
-0.56101149 -0.38233358 0.58121914 4294901760
-0.56101149 -0.3567026 -0.18771043 4294901760
-0.56101149 -0.3567026 -0.16207944 4294901760
-0.56101149 -0.3567026 0.60685015 4294901760
-0.56101149 -0.33107165 -0.18771043 4294901760
-0.56101149 -0.33107165 -0.16207944 4294901760
-0.56101149 -0.33107165 0.63248122 4294901760
-0.56101149 -0.30544063 -0.18771043 4294901760
-0.56101149 -0.30544063 -0.16207944 4294901760
-0.56101149 -0.30544063 0.45306426 4294901760
-0.56101149 -0.30544063 0.63248122 4294901760
-0.56101149 -0.27980965 -0.18771043 4294901760
-0.56101149 -0.27980965 -0.16207944 4294901760
-0.56101149 -0.27980965 0.45306426 4294901760
-0.56101149 -0.27980965 0.60685015 4294901760
-0.56101149 -0.25417864 -0.21334143 4294901760
-0.56101149 -0.25417864 -0.18771043 4294901760
-0.56101149 -0.25417864 -0.16207944 4294901760
-0.56101149 -0.25417864 0.45306426 4294901760
-0.56101149 -0.25417864 0.55558819 4294901760
-0.56101149 -0.25417864 0.58121914 4294901760
-0.56101149 -0.22854768 -0.21334143 4294901760
-0.56101149 -0.22854768 -0.18771043 4294901760
-0.56101149 -0.22854768 0.45306426 4294901760
-0.56101149 -0.22854768 0.52995723 4294901760
-0.56101149 -0.20291671 -0.21334143 4294901760
-0.56101149 -0.20291671 -0.18771043 4294901760
-0.56101149 -0.20291671 0.45306426 4294901760
-0.56101149 -0.20291671 0.50432622 4294901760
-0.56101149 -0.17728569 -0.21334143 4294901760
-0.56101149 -0.17728569 -0.18771043 4294901760
-0.56101149 -0.17728569 0.45306426 4294901760
-0.56101149 -0.17728569 0.47869521 4294901760
-0.56101149 -0.15165472 -0.21334143 4294901760
-0.56101149 -0.15165472 -0.18771043 4294901760
-0.56101149 -0.15165472 0.45306426 4294901760
-0.56101149 -0.12602369 -0.21334143 4294901760
-0.56101149 -0.12602369 -0.18771043 4294901760
-0.56101149 -0.12602369 0.42743328 4294901760
-0.56101149 -0.12602369 0.45306426 4294901760
-0.56101149 -0.10039274 -0.21334143 4294901760
-0.56101149 -0.10039274 -0.18771043 4294901760
-0.56101149 -0.10039274 0.40180227 4294901760
-0.56101149 -0.10039274 0.45306426 4294901760
-0.56101149 -0.074761771 -0.21334143 4294901760
-0.56101149 -0.074761771 -0.18771043 4294901760
-0.56101149 -0.074761771 0.042968452 4294901760
-0.56101149 -0.074761771 0.37617132 4294901760
-0.56101149 -0.074761771 0.45306426 4294901760
-0.56101149 -0.049130749 -0.26460341 4294901760
-0.56101149 -0.049130749 -0.23897241 4294901760
-0.56101149 -0.049130749 -0.21334143 4294901760
-0.56101149 -0.049130749 -0.18771043 4294901760
-0.56101149 -0.049130749 -0.16207944 4294901760
-0.56101149 -0.049130749 -0.13644846 4294901760
-0.56101149 -0.049130749 -0.11081748 4294901760
-0.56101149 -0.049130749 -0.085186489 4294901760
-0.56101149 -0.049130749 -0.059555493 4294901760
-0.56101149 -0.049130749 -0.033924513 4294901760
-0.56101149 -0.049130749 -0.0082935346 4294901760
-0.56101149 -0.049130749 0.017337458 4294901760
-0.56101149 -0.049130749 0.042968452 4294901760
-0.56101149 -0.049130749 0.068599448 4294901760
-0.56101149 -0.049130749 0.094230436 4294901760
-0.56101149 -0.049130749 0.1198614 4294901760
-0.56101149 -0.049130749 0.14549239 4294901760
-0.56101149 -0.049130749 0.17112339 4294901760
-0.56101149 -0.049130749 0.19675438 4294901760
-0.56101149 -0.049130749 0.22238538 4294901760
-0.56101149 -0.049130749 0.24801637 4294901760
-0.56101149 -0.049130749 0.27364734 4294901760
-0.56101149 -0.049130749 0.29927835 4294901760
-0.56101149 -0.049130749 0.35054028 4294901760
-0.56101149 -0.049130749 0.45306426 4294901760
-0.56101149 -0.023499785 -0.23897241 4294901760
-0.56101149 -0.023499785 -0.21334143 4294901760
-0.56101149 -0.023499785 -0.18771043 4294901760
-0.56101149 -0.023499785 0.042968452 4294901760
-0.56101149 -0.023499785 0.32490933 4294901760
-0.56101149 -0.023499785 0.45306426 4294901760
-0.56101149 0.0021312388 -0.23897241 4294901760
-0.56101149 0.0021312388 -0.21334143 4294901760
-0.56101149 0.0021312388 0.042968452 4294901760
-0.56101149 0.0021312388 0.45306426 4294901760
-0.56101149 0.027762203 -0.23897241 4294901760
-0.56101149 0.027762203 -0.21334143 4294901760
-0.56101149 0.027762203 0.042968452 4294901760
-0.56101149 0.027762203 0.068599448 4294901760
-0.56101149 0.027762203 0.094230436 4294901760
-0.56101149 0.027762203 0.1198614 4294901760
-0.56101149 0.027762203 0.14549239 4294901760
-0.56101149 0.027762203 0.17112339 4294901760
-0.56101149 0.027762203 0.45306426 4294901760
-0.56101149 0.053393167 -0.23897241 4294901760
-0.56101149 0.053393167 -0.21334143 4294901760
-0.56101149 0.053393167 0.042968452 4294901760
-0.56101149 0.053393167 0.17112339 4294901760
-0.56101149 0.053393167 0.42743328 4294901760
-0.56101149 0.079024188 -0.23897241 4294901760
-0.56101149 0.079024188 -0.21334143 4294901760
-0.56101149 0.079024188 0.042968452 4294901760
-0.56101149 0.079024188 0.17112339 4294901760
-0.56101149 0.079024188 0.40180227 4294901760
-0.56101149 0.10465515 -0.23897241 4294901760
-0.56101149 0.10465515 -0.21334143 4294901760
-0.56101149 0.10465515 0.042968452 4294901760
-0.56101149 0.10465515 0.17112339 4294901760
-0.56101149 0.10465515 0.37617132 4294901760
-0.56101149 0.13028617 -0.23897241 4294901760
-0.56101149 0.13028617 -0.21334143 4294901760
-0.56101149 0.13028617 0.042968452 4294901760
-0.56101149 0.13028617 0.14549239 4294901760
-0.56101149 0.13028617 0.17112339 4294901760
-0.56101149 0.13028617 0.29927835 4294901760
-0.56101149 0.13028617 0.35054028 4294901760
-0.56101149 0.15591714 -0.26460341 4294901760
-0.56101149 0.15591714 -0.23897241 4294901760
-0.56101149 0.15591714 -0.21334143 4294901760
-0.56101149 0.15591714 -0.18771043 4294901760
-0.56101149 0.15591714 -0.16207944 4294901760
-0.56101149 0.15591714 -0.13644846 4294901760
-0.56101149 0.15591714 -0.11081748 4294901760
-0.56101149 0.15591714 -0.085186489 4294901760
-0.56101149 0.15591714 -0.059555493 4294901760
-0.56101149 0.15591714 -0.033924513 4294901760
-0.56101149 0.15591714 -0.0082935346 4294901760
-0.56101149 0.15591714 0.017337458 4294901760
-0.56101149 0.15591714 0.042968452 4294901760
-0.56101149 0.15591714 0.068599448 4294901760
-0.56101149 0.15591714 0.094230436 4294901760
-0.56101149 0.15591714 0.1198614 4294901760
-0.56101149 0.15591714 0.14549239 4294901760
-0.56101149 0.15591714 0.17112339 4294901760
-0.56101149 0.15591714 0.19675438 4294901760
-0.56101149 0.15591714 0.22238538 4294901760
-0.56101149 0.15591714 0.24801637 4294901760
-0.56101149 0.15591714 0.27364734 4294901760
-0.56101149 0.15591714 0.29927835 4294901760
-0.56101149 0.15591714 0.35054028 4294901760
-0.56101149 0.1815481 -0.26460341 4294901760
-0.56101149 0.1815481 -0.23897241 4294901760
-0.56101149 0.1815481 -0.16207944 4294901760
-0.56101149 0.1815481 0.042968452 4294901760
-0.56101149 0.1815481 0.1198614 4294901760
-0.56101149 0.1815481 0.32490933 4294901760
-0.56101149 0.2071791 -0.26460341 4294901760
-0.56101149 0.2071791 -0.23897241 4294901760
-0.56101149 0.2071791 -0.16207944 4294901760
-0.56101149 0.2071791 0.042968452 4294901760
-0.56101149 0.2071791 0.094230436 4294901760
-0.56101149 0.23281009 -0.26460341 4294901760
-0.56101149 0.23281009 -0.23897241 4294901760
-0.56101149 0.23281009 -0.16207944 4294901760
-0.56101149 0.23281009 -0.11081748 4294901760
-0.56101149 0.23281009 -0.085186489 4294901760
-0.56101149 0.23281009 -0.059555493 4294901760
-0.56101149 0.23281009 -0.033924513 4294901760
-0.56101149 0.23281009 -0.0082935346 4294901760
-0.56101149 0.23281009 0.017337458 4294901760
-0.56101149 0.23281009 0.042968452 4294901760
-0.56101149 0.23281009 0.094230436 4294901760
-0.56101149 0.25844109 -0.26460341 4294901760
-0.56101149 0.25844109 -0.23897241 4294901760
-0.56101149 0.25844109 -0.16207944 4294901760
-0.56101149 0.25844109 -0.13644846 4294901760
-0.56101149 0.25844109 0.042968452 4294901760
-0.56101149 0.25844109 0.068599448 4294901760
-0.56101149 0.28407207 -0.26460341 4294901760
-0.56101149 0.28407207 -0.23897241 4294901760
-0.56101149 0.28407207 -0.16207944 4294901760
-0.56101149 0.28407207 0.042968452 4294901760
-0.56101149 0.28407207 0.068599448 4294901760
-0.56101149 0.30970308 -0.26460341 4294901760
-0.56101149 0.30970308 -0.23897241 4294901760
-0.56101149 0.30970308 0.042968452 4294901760
-0.56101149 0.33533403 -0.26460341 4294901760
-0.56101149 0.33533403 -0.23897241 4294901760
-0.56101149 0.36096501 -0.26460341 4294901760
-0.56101149 0.36096501 -0.23897241 4294901760
-0.56101149 0.38659602 -0.26460341 4294901760
-0.56101149 0.38659602 -0.23897241 4294901760
-0.56101149 0.412227 -0.26460341 4294901760
-0.56101149 0.412227 -0.23897241 4294901760
-0.56101149 0.43785802 -0.26460341 4294901760
-0.56101149 0.43785802 -0.23897241 4294901760
-0.56101149 0.463489 -0.26460341 4294901760
-0.56101149 0.463489 -0.23897241 4294901760
-0.56101149 0.48911998 -0.26460341 4294901760
-0.56101149 0.48911998 -0.23897241 4294901760
-0.56101149 0.51475102 -0.26460341 4294901760
-0.56101149 0.51475102 -0.23897241 4294901760
-0.56101149 0.54038197 -0.26460341 4294901760
-0.56101149 0.54038197 -0.23897241 4294901760
-0.56101149 0.56601292 -0.26460341 4294901760
-0.56101149 0.56601292 -0.23897241 4294901760
-0.56101149 0.59164393 -0.26460341 4294901760
-0.56101149 0.59164393 -0.23897241 4294901760
-0.56101149 0.61727488 -0.26460341 4294901760
-0.56101149 0.61727488 -0.23897241 4294901760
-0.56101149 0.64290595 -0.26460341 4294901760
-0.56101149 0.64290595 -0.23897241 4294901760
-0.56101149 0.6685369 -0.26460341 4294901760
-0.56101149 0.6685369 -0.23897241 4294901760
-0.56101149 0.69416785 -0.26460341 4294901760
-0.56101149 0.69416785 -0.23897241 4294901760
-0.53538042 -0.56175053 -0.16207944 4294901760
-0.53538042 -0.56175053 -0.13644846 4294901760
-0.53538042 -0.56175053 0.042968452 4294901760
-0.53538042 -0.56175053 0.19675438 4294901760
-0.53538042 -0.56175053 0.40180227 4294901760
-0.53538042 -0.53611946 -0.16207944 4294901760
-0.53538042 -0.53611946 -0.13644846 4294901760
-0.53538042 -0.53611946 0.042968452 4294901760
-0.53538042 -0.53611946 0.42743328 4294901760
-0.53538042 -0.51048851 -0.18771043 4294901760
-0.53538042 -0.51048851 -0.16207944 4294901760
-0.53538042 -0.51048851 -0.13644846 4294901760
-0.53538042 -0.51048851 0.45306426 4294901760
-0.53538042 -0.48485756 -0.18771043 4294901760
-0.53538042 -0.48485756 -0.16207944 4294901760
-0.53538042 -0.48485756 0.47869521 4294901760
-0.53538042 -0.45922658 -0.18771043 4294901760
-0.53538042 -0.45922658 -0.16207944 4294901760
-0.53538042 -0.45922658 0.50432622 4294901760
-0.53538042 -0.43359563 -0.18771043 4294901760
-0.53538042 -0.43359563 -0.16207944 4294901760
-0.53538042 -0.43359563 0.52995723 4294901760
-0.53538042 -0.40796453 -0.18771043 4294901760
-0.53538042 -0.40796453 -0.16207944 4294901760
-0.53538042 -0.40796453 0.55558819 4294901760
-0.53538042 -0.38233358 -0.18771043 4294901760
-0.53538042 -0.38233358 -0.16207944 4294901760
-0.53538042 -0.38233358 0.58121914 4294901760
-0.53538042 -0.3567026 -0.18771043 4294901760
-0.53538042 -0.3567026 -0.16207944 4294901760
-0.53538042 -0.3567026 0.60685015 4294901760
-0.53538042 -0.33107165 -0.18771043 4294901760
-0.53538042 -0.33107165 -0.16207944 4294901760
-0.53538042 -0.33107165 0.63248122 4294901760
-0.53538042 -0.30544063 -0.18771043 4294901760
-0.53538042 -0.30544063 -0.16207944 4294901760
-0.53538042 -0.30544063 0.42743328 4294901760
-0.53538042 -0.30544063 0.63248122 4294901760
-0.53538042 -0.27980965 -0.21334143 4294901760
-0.53538042 -0.27980965 -0.18771043 4294901760
-0.53538042 -0.27980965 0.42743328 4294901760
-0.53538042 -0.27980965 0.60685015 4294901760
-0.53538042 -0.25417864 -0.21334143 4294901760
-0.53538042 -0.25417864 -0.18771043 4294901760
-0.53538042 -0.25417864 0.42743328 4294901760
-0.53538042 -0.25417864 0.55558819 4294901760
-0.53538042 -0.25417864 0.58121914 4294901760
-0.53538042 -0.22854768 -0.21334143 4294901760
-0.53538042 -0.22854768 -0.18771043 4294901760
-0.53538042 -0.22854768 0.42743328 4294901760
-0.53538042 -0.22854768 0.52995723 4294901760
-0.53538042 -0.20291671 -0.21334143 4294901760
-0.53538042 -0.20291671 -0.18771043 4294901760
-0.53538042 -0.20291671 0.42743328 4294901760
-0.53538042 -0.20291671 0.50432622 4294901760
-0.53538042 -0.17728569 -0.21334143 4294901760
-0.53538042 -0.17728569 -0.18771043 4294901760
-0.53538042 -0.17728569 0.42743328 4294901760
-0.53538042 -0.17728569 0.47869521 4294901760
-0.53538042 -0.15165472 -0.21334143 4294901760
-0.53538042 -0.15165472 -0.18771043 4294901760
-0.53538042 -0.15165472 0.42743328 4294901760
-0.53538042 -0.15165472 0.45306426 4294901760
-0.53538042 -0.12602369 -0.21334143 4294901760
-0.53538042 -0.12602369 -0.18771043 4294901760
-0.53538042 -0.12602369 0.42743328 4294901760
-0.53538042 -0.10039274 -0.21334143 4294901760
-0.53538042 -0.10039274 -0.18771043 4294901760
-0.53538042 -0.10039274 0.40180227 4294901760
-0.53538042 -0.10039274 0.42743328 4294901760
-0.53538042 -0.074761771 -0.21334143 4294901760
-0.53538042 -0.074761771 -0.18771043 4294901760
-0.53538042 -0.074761771 0.042968452 4294901760
-0.53538042 -0.074761771 0.37617132 4294901760
-0.53538042 -0.074761771 0.42743328 4294901760
-0.53538042 -0.049130749 -0.26460341 4294901760
-0.53538042 -0.049130749 -0.23897241 4294901760
-0.53538042 -0.049130749 -0.21334143 4294901760
-0.53538042 -0.049130749 -0.18771043 4294901760
-0.53538042 -0.049130749 -0.16207944 4294901760
-0.53538042 -0.049130749 -0.13644846 4294901760
-0.53538042 -0.049130749 -0.11081748 4294901760
-0.53538042 -0.049130749 -0.085186489 4294901760
-0.53538042 -0.049130749 -0.059555493 4294901760
-0.53538042 -0.049130749 -0.033924513 4294901760
-0.53538042 -0.049130749 -0.0082935346 4294901760
-0.53538042 -0.049130749 0.017337458 4294901760
-0.53538042 -0.049130749 0.042968452 4294901760
-0.53538042 -0.049130749 0.068599448 4294901760
-0.53538042 -0.049130749 0.094230436 4294901760
-0.53538042 -0.049130749 0.1198614 4294901760
-0.53538042 -0.049130749 0.14549239 4294901760
-0.53538042 -0.049130749 0.17112339 4294901760
-0.53538042 -0.049130749 0.19675438 4294901760
-0.53538042 -0.049130749 0.22238538 4294901760
-0.53538042 -0.049130749 0.24801637 4294901760
-0.53538042 -0.049130749 0.27364734 4294901760
-0.53538042 -0.049130749 0.29927835 4294901760
-0.53538042 -0.049130749 0.35054028 4294901760
-0.53538042 -0.049130749 0.42743328 4294901760
-0.53538042 -0.023499785 -0.23897241 4294901760
-0.53538042 -0.023499785 -0.21334143 4294901760
-0.53538042 -0.023499785 0.042968452 4294901760
-0.53538042 -0.023499785 0.32490933 4294901760
-0.53538042 -0.023499785 0.42743328 4294901760
-0.53538042 0.0021312388 -0.23897241 4294901760
-0.53538042 0.0021312388 -0.21334143 4294901760
-0.53538042 0.0021312388 0.042968452 4294901760
-0.53538042 0.0021312388 0.42743328 4294901760
-0.53538042 0.027762203 -0.23897241 4294901760
-0.53538042 0.027762203 -0.21334143 4294901760
-0.53538042 0.027762203 0.042968452 4294901760
-0.53538042 0.027762203 0.068599448 4294901760
-0.53538042 0.027762203 0.094230436 4294901760
-0.53538042 0.027762203 0.1198614 4294901760
-0.53538042 0.027762203 0.14549239 4294901760
-0.53538042 0.027762203 0.17112339 4294901760
-0.53538042 0.027762203 0.42743328 4294901760
-0.53538042 0.053393167 -0.23897241 4294901760
-0.53538042 0.053393167 -0.21334143 4294901760
-0.53538042 0.053393167 0.042968452 4294901760
-0.53538042 0.053393167 0.17112339 4294901760
-0.53538042 0.053393167 0.42743328 4294901760
-0.53538042 0.079024188 -0.23897241 4294901760
-0.53538042 0.079024188 -0.21334143 4294901760
-0.53538042 0.079024188 0.042968452 4294901760
-0.53538042 0.079024188 0.17112339 4294901760
-0.53538042 0.079024188 0.40180227 4294901760
-0.53538042 0.10465515 -0.23897241 4294901760
-0.53538042 0.10465515 -0.21334143 4294901760
-0.53538042 0.10465515 0.042968452 4294901760
-0.53538042 0.10465515 0.17112339 4294901760
-0.53538042 0.10465515 0.37617132 4294901760
-0.53538042 0.13028617 -0.26460341 4294901760
-0.53538042 0.13028617 -0.23897241 4294901760
-0.53538042 0.13028617 0.042968452 4294901760
-0.53538042 0.13028617 0.14549239 4294901760
-0.53538042 0.13028617 0.17112339 4294901760
-0.53538042 0.13028617 0.19675438 4294901760
-0.53538042 0.13028617 0.22238538 4294901760
-0.53538042 0.13028617 0.24801637 4294901760
-0.53538042 0.13028617 0.27364734 4294901760
-0.53538042 0.13028617 0.29927835 4294901760
-0.53538042 0.13028617 0.35054028 4294901760
-0.53538042 0.15591714 -0.26460341 4294901760
-0.53538042 0.15591714 -0.23897241 4294901760
-0.53538042 0.15591714 -0.21334143 4294901760
-0.53538042 0.15591714 -0.18771043 4294901760
-0.53538042 0.15591714 -0.16207944 4294901760
-0.53538042 0.15591714 -0.13644846 4294901760
-0.53538042 0.15591714 -0.11081748 4294901760
-0.53538042 0.15591714 -0.085186489 4294901760
-0.53538042 0.15591714 -0.059555493 4294901760
-0.53538042 0.15591714 -0.033924513 4294901760
-0.53538042 0.15591714 -0.0082935346 4294901760
-0.53538042 0.15591714 0.017337458 4294901760
-0.53538042 0.15591714 0.042968452 4294901760
-0.53538042 0.15591714 0.068599448 4294901760
-0.53538042 0.15591714 0.094230436 4294901760
-0.53538042 0.15591714 0.1198614 4294901760
-0.53538042 0.15591714 0.14549239 4294901760
-0.53538042 0.15591714 0.17112339 4294901760
-0.53538042 0.15591714 0.19675438 4294901760
-0.53538042 0.15591714 0.22238538 4294901760
-0.53538042 0.15591714 0.24801637 4294901760
-0.53538042 0.15591714 0.27364734 4294901760
-0.53538042 0.15591714 0.29927835 4294901760
-0.53538042 0.15591714 0.35054028 4294901760
-0.53538042 0.1815481 -0.26460341 4294901760
-0.53538042 0.1815481 -0.23897241 4294901760
-0.53538042 0.1815481 -0.16207944 4294901760
-0.53538042 0.1815481 0.042968452 4294901760
-0.53538042 0.1815481 0.1198614 4294901760
-0.53538042 0.1815481 0.32490933 4294901760
-0.53538042 0.2071791 -0.26460341 4294901760
-0.53538042 0.2071791 -0.23897241 4294901760
-0.53538042 0.2071791 -0.16207944 4294901760
-0.53538042 0.2071791 0.042968452 4294901760
-0.53538042 0.2071791 0.094230436 4294901760
-0.53538042 0.23281009 -0.26460341 4294901760
-0.53538042 0.23281009 -0.23897241 4294901760
-0.53538042 0.23281009 -0.16207944 4294901760
-0.53538042 0.23281009 -0.11081748 4294901760
-0.53538042 0.23281009 -0.085186489 4294901760
-0.53538042 0.23281009 -0.059555493 4294901760
-0.53538042 0.23281009 -0.033924513 4294901760
-0.53538042 0.23281009 -0.0082935346 4294901760
-0.53538042 0.23281009 0.017337458 4294901760
-0.53538042 0.23281009 0.042968452 4294901760
-0.53538042 0.23281009 0.094230436 4294901760
-0.53538042 0.25844109 -0.26460341 4294901760
-0.53538042 0.25844109 -0.23897241 4294901760
-0.53538042 0.25844109 -0.16207944 4294901760
-0.53538042 0.25844109 -0.13644846 4294901760
-0.53538042 0.25844109 0.042968452 4294901760
-0.53538042 0.25844109 0.068599448 4294901760
-0.53538042 0.28407207 -0.26460341 4294901760
-0.53538042 0.28407207 -0.23897241 4294901760
-0.53538042 0.28407207 -0.16207944 4294901760
-0.53538042 0.28407207 0.042968452 4294901760
-0.53538042 0.28407207 0.068599448 4294901760
-0.53538042 0.30970308 -0.26460341 4294901760
-0.53538042 0.30970308 -0.23897241 4294901760
-0.53538042 0.30970308 0.042968452 4294901760
-0.53538042 0.33533403 -0.26460341 4294901760
-0.53538042 0.33533403 -0.23897241 4294901760
-0.53538042 0.36096501 -0.26460341 4294901760
-0.53538042 0.36096501 -0.23897241 4294901760
-0.53538042 0.38659602 -0.26460341 4294901760
-0.53538042 0.38659602 -0.23897241 4294901760
-0.53538042 0.412227 -0.26460341 4294901760
-0.53538042 0.412227 -0.23897241 4294901760
-0.53538042 0.43785802 -0.26460341 4294901760
-0.53538042 0.43785802 -0.23897241 4294901760
-0.53538042 0.463489 -0.26460341 4294901760
-0.53538042 0.463489 -0.23897241 4294901760
-0.53538042 0.48911998 -0.26460341 4294901760
-0.53538042 0.48911998 -0.23897241 4294901760
-0.53538042 0.51475102 -0.26460341 4294901760
-0.53538042 0.51475102 -0.23897241 4294901760
-0.53538042 0.54038197 -0.26460341 4294901760
-0.53538042 0.54038197 -0.23897241 4294901760
-0.53538042 0.56601292 -0.26460341 4294901760
-0.53538042 0.56601292 -0.23897241 4294901760
-0.53538042 0.59164393 -0.26460341 4294901760
-0.53538042 0.59164393 -0.23897241 4294901760
-0.53538042 0.61727488 -0.26460341 4294901760
-0.53538042 0.61727488 -0.23897241 4294901760
-0.53538042 0.64290595 -0.26460341 4294901760
-0.53538042 0.64290595 -0.23897241 4294901760
-0.53538042 0.6685369 -0.26460341 4294901760
-0.53538042 0.6685369 -0.23897241 4294901760
-0.53538042 0.69416785 -0.26460341 4294901760
-0.53538042 0.69416785 -0.23897241 4294901760
-0.50974959 -0.56175053 -0.16207944 4294901760
-0.50974959 -0.56175053 -0.13644846 4294901760
-0.50974959 -0.56175053 0.042968452 4294901760
-0.50974959 -0.56175053 0.19675438 4294901760
-0.50974959 -0.56175053 0.40180227 4294901760
-0.50974959 -0.53611946 -0.18771043 4294901760
-0.50974959 -0.53611946 -0.16207944 4294901760
-0.50974959 -0.53611946 -0.13644846 4294901760
-0.50974959 -0.53611946 0.042968452 4294901760
-0.50974959 -0.53611946 0.42743328 4294901760
-0.50974959 -0.51048851 -0.18771043 4294901760
-0.50974959 -0.51048851 -0.16207944 4294901760
-0.50974959 -0.51048851 0.45306426 4294901760
-0.50974959 -0.48485756 -0.18771043 4294901760
-0.50974959 -0.48485756 -0.16207944 4294901760
-0.50974959 -0.48485756 0.47869521 4294901760
-0.50974959 -0.45922658 -0.18771043 4294901760
-0.50974959 -0.45922658 -0.16207944 4294901760
-0.50974959 -0.45922658 0.50432622 4294901760
-0.50974959 -0.43359563 -0.18771043 4294901760
-0.50974959 -0.43359563 -0.16207944 4294901760
-0.50974959 -0.43359563 0.52995723 4294901760
-0.50974959 -0.40796453 -0.18771043 4294901760
-0.50974959 -0.40796453 -0.16207944 4294901760
-0.50974959 -0.40796453 0.55558819 4294901760
-0.50974959 -0.38233358 -0.18771043 4294901760
-0.50974959 -0.38233358 -0.16207944 4294901760
-0.50974959 -0.38233358 0.58121914 4294901760
-0.50974959 -0.3567026 -0.18771043 4294901760
-0.50974959 -0.3567026 -0.16207944 4294901760
-0.50974959 -0.3567026 0.60685015 4294901760
-0.50974959 -0.33107165 -0.21334143 4294901760
-0.50974959 -0.33107165 -0.18771043 4294901760
-0.50974959 -0.33107165 -0.16207944 4294901760
-0.50974959 -0.33107165 0.63248122 4294901760
-0.50974959 -0.30544063 -0.21334143 4294901760
-0.50974959 -0.30544063 -0.18771043 4294901760
-0.50974959 -0.30544063 0.40180227 4294901760
-0.50974959 -0.30544063 0.63248122 4294901760
-0.50974959 -0.27980965 -0.21334143 4294901760
-0.50974959 -0.27980965 -0.18771043 4294901760
-0.50974959 -0.27980965 0.40180227 4294901760
-0.50974959 -0.27980965 0.60685015 4294901760
-0.50974959 -0.25417864 -0.21334143 4294901760
-0.50974959 -0.25417864 -0.18771043 4294901760
-0.50974959 -0.25417864 0.40180227 4294901760
-0.50974959 -0.25417864 0.55558819 4294901760
-0.50974959 -0.25417864 0.58121914 4294901760
-0.50974959 -0.22854768 -0.21334143 4294901760
-0.50974959 -0.22854768 -0.18771043 4294901760
-0.50974959 -0.22854768 0.40180227 4294901760
-0.50974959 -0.22854768 0.52995723 4294901760
-0.50974959 -0.20291671 -0.21334143 4294901760
-0.50974959 -0.20291671 -0.18771043 4294901760
-0.50974959 -0.20291671 0.40180227 4294901760
-0.50974959 -0.20291671 0.50432622 4294901760
-0.50974959 -0.17728569 -0.21334143 4294901760
-0.50974959 -0.17728569 -0.18771043 4294901760
-0.50974959 -0.17728569 0.40180227 4294901760
-0.50974959 -0.17728569 0.47869521 4294901760
-0.50974959 -0.15165472 -0.21334143 4294901760
-0.50974959 -0.15165472 -0.18771043 4294901760
-0.50974959 -0.15165472 0.40180227 4294901760
-0.50974959 -0.15165472 0.45306426 4294901760
-0.50974959 -0.12602369 -0.23897241 4294901760
-0.50974959 -0.12602369 -0.21334143 4294901760
-0.50974959 -0.12602369 -0.18771043 4294901760
-0.50974959 -0.12602369 0.40180227 4294901760
-0.50974959 -0.12602369 0.42743328 4294901760
-0.50974959 -0.10039274 -0.23897241 4294901760
-0.50974959 -0.10039274 -0.21334143 4294901760
-0.50974959 -0.10039274 0.40180227 4294901760
-0.50974959 -0.074761771 -0.23897241 4294901760
-0.50974959 -0.074761771 -0.21334143 4294901760
-0.50974959 -0.074761771 0.042968452 4294901760
-0.50974959 -0.074761771 0.37617132 4294901760
-0.50974959 -0.074761771 0.40180227 4294901760
-0.50974959 -0.049130749 -0.26460341 4294901760
-0.50974959 -0.049130749 -0.23897241 4294901760
-0.50974959 -0.049130749 -0.21334143 4294901760
-0.50974959 -0.049130749 -0.18771043 4294901760
-0.50974959 -0.049130749 -0.16207944 4294901760
-0.50974959 -0.049130749 -0.13644846 4294901760
-0.50974959 -0.049130749 -0.11081748 4294901760
-0.50974959 -0.049130749 -0.085186489 4294901760
-0.50974959 -0.049130749 -0.059555493 4294901760
-0.50974959 -0.049130749 -0.033924513 4294901760
-0.50974959 -0.049130749 -0.0082935346 4294901760
-0.50974959 -0.049130749 0.017337458 4294901760
-0.50974959 -0.049130749 0.042968452 4294901760
-0.50974959 -0.049130749 0.068599448 4294901760
-0.50974959 -0.049130749 0.094230436 4294901760
-0.50974959 -0.049130749 0.1198614 4294901760
-0.50974959 -0.049130749 0.14549239 4294901760
-0.50974959 -0.049130749 0.17112339 4294901760
-0.50974959 -0.049130749 0.19675438 4294901760
-0.50974959 -0.049130749 0.22238538 4294901760
-0.50974959 -0.049130749 0.24801637 4294901760
-0.50974959 -0.049130749 0.27364734 4294901760
-0.50974959 -0.049130749 0.29927835 4294901760
-0.50974959 -0.049130749 0.35054028 4294901760
-0.50974959 -0.049130749 0.40180227 4294901760
-0.50974959 -0.023499785 -0.23897241 4294901760
-0.50974959 -0.023499785 -0.21334143 4294901760
-0.50974959 -0.023499785 0.042968452 4294901760
-0.50974959 -0.023499785 0.32490933 4294901760
-0.50974959 -0.023499785 0.40180227 4294901760
-0.50974959 0.0021312388 -0.23897241 4294901760
-0.50974959 0.0021312388 -0.21334143 4294901760
-0.50974959 0.0021312388 0.042968452 4294901760
-0.50974959 0.0021312388 0.40180227 4294901760
-0.50974959 0.027762203 -0.23897241 4294901760
-0.50974959 0.027762203 -0.21334143 4294901760
-0.50974959 0.027762203 0.042968452 4294901760
-0.50974959 0.027762203 0.068599448 4294901760
-0.50974959 0.027762203 0.094230436 4294901760
-0.50974959 0.027762203 0.1198614 4294901760
-0.50974959 0.027762203 0.14549239 4294901760
