# .PCD v0.7 - Point Cloud Data file format
VERSION 0.7
FIELDS x y z rgb
SIZE 4 4 4 4
TYPE F F F U
COUNT 1 1 1 1
WIDTH 1086
HEIGHT 1
VIEWPOINT 0 0 0 1 0 0 0
POINTS 1086
DATA ascii
0.47574595 0.9219324 0.78832912 4294901760
0.089354731 0.92584693 0.22661598 4294901760
0.51817387 0.52493376 0.99921703 4294901760
0.55676126 0.90574628 0.0040612025 4294901760
0.16350116 0.17419475 0.16950744 4294901760
0.29821825 0.8694827 0.96914887 4294901760
0.52670372 0.86772335 0.66382211 4294901760
0.8002311 0.65906936 0.18455736 4294901760
0.70417887 0.90252203 0.37762916 4294901760
0.47077343 0.86532462 0.098882116 4294901760
0.64795822 0.42178395 0.80078596 4294901760
0.28840819 0.78228945 0.066176437 4294901760
0.15894824 0.37240037 0.50447154 4294901760
0.90893555 0.38985282 0.15042423 4294901760
0.057915132 0.85780674 0.30709693 4294901760
0.12508442 0.57932389 0.2296001 4294901760
0.60344619 0.085565329 0.69452417 4294901760
0.77565384 0.8170647 0.089001529 4294901760
0.31189328 0.3683666 0.25374708 4294901760
0.024452833 0.79284465 0.40502512 4294901760
0.85639983 0.45854753 0.30008993 4294901760
0.81149566 0.96328151 0.28483698 4294901760
0.95409113 0.0068033068 0.94479406 4294901760
0.68741161 0.33870545 0.79198885 4294901760
0.39044517 0.33251783 0.2400998 4294901760
0.12091054 0.067565091 0.40899506 4294901760
0.21065424 0.97946221 0.27021655 4294901760
0.94154948 0.61228561 0.73506212 4294901760
0.61466742 0.99392194 0.53872561 4294901760
0.18719804 0.90572453 0.54884541 4294901760
0.78907645 0.62052006 0.016534504 4294901760
0.70019722 0.28688994 0.82992506 4294901760
0.43521306 0.80120343 0.85332543 4294901760
0.74072015 0.5448519 0.46237692 4294901760
0.046044506 0.029134968 0.42594677 4294901760
0.89687634 0.86178631 0.20806259 4294901760
0.55754703 0.95939404 0.33329985 4294901760
0.012507993 0.6904912 0.77153254 4294901760
0.21596205 0.79153359 0.90701592 4294901760
0.0095787803 0.60590947 0.26709509 4294901760
0.94755602 0.64641213 0.19336647 4294901760
0.062984243 0.48865223 0.10403 4294901760
0.97201848 0.91502213 0.45574939 4294901760
0.57274204 0.46490818 0.38002962 4294901760
0.7104817 0.24536654 0.6885379 4294901760
0.43169549 0.11722396 0.14800979 4294901760
0.066983506 0.38997552 0.14016914 4294901760
0.59345829 0.21424079 0.65278828 4294901760
0.049893029 0.75790721 0.81841916 4294901760
0.25598022 0.4207907 0.84393269 4294901760
0.58480477 0.70692581 0.55424529 4294901760
0.46727991 0.090578102 0.89623511 4294901760
0.6503489 0.47140911 0.71556765 4294901760
0.16016786 0.31791863 0.89682782 4294901760
0.16093211 0.34144595 0.59514624 4294901760
0.23935494 0.64115196 0.84928936 4294901760
0.8901301 0.44429547 0.31911179 4294901760
0.00024312444 0.34704348 0.060734928 4294901760
0.018440299 0.30614349 0.55606544 4294901760
0.4066554 0.10166499 0.96415818 4294901760
0.90296149 0.58932424 0.70670164 4294901760
0.62400991 0.80919617 0.64225495 4294901760
0.41659558 0.37727612 0.70078772 4294901760
0.97197199 0.80894923 0.50304353 4294901760
0.74226213 0.10764256 0.20347326 4294901760
0.80117506 0.24714705 0.84577054 4294901760
0.42761588 0.82275307 0.90361154 4294901760
0.15525861 0.026316594 0.92550337 4294901760
0.92202407 0.42242327 0.61691839 4294901760
0.93945611 0.99842256 0.77899605 4294901760
0.84139097 0.3914887 0.18277247 4294901760
0.41728497 0.74254924 0.56799251 4294901760
0.25868312 0.68955868 0.093691126 4294901760
0.22593126 0.4341889 0.79980344 4294901760
0.086806014 0.46990463 0.36880943 4294901760
0.38642344 0.58901912 0.74291164 4294901760
0.93073893 0.87709606 0.72406584 4294901760
0.70253474 0.070073418 0.30269343 4294901760
0.44097745 0.18193881 0.0039161574 4294901760
0.74473125 0.69016588 0.91613477 4294901760
0.27922782 0.91496766 0.50572878 4294901760
0.048895836 0.33220842 0.53990865 4294901760
0.37011659 0.77688682 0.90382385 4294901760
0.28284094 0.79609746 0.44738391 4294901760
0.57492036 0.80096108 0.56774414 4294901760
0.72846228 0.20598434 0.80766988 4294901760
0.79805893 0.98931849 0.55784857 4294901760
0.60424787 0.96925724 0.49285358 4294901760
0.89476538 0.91281313 0.16925924 4294901760
0.038980089 0.35837042 0.35551053 4294901760
0.44199422 0.89553958 0.33614519 4294901760
0.57040107 0.75118005 0.14431122 4294901760
0.36524019 0.78100449 0.39407879 4294901760
0.97620481 0.22262245 0.44128928 4294901760
0.39796835 0.012997879 0.10349233 4294901760
0.33819318 0.085529104 0.68915755 4294901760
0.33865327 0.44458821 0.77506763 4294901760
0.90234613 0.59700298 0.071018271 4294901760
0.43254137 0.75079024 0.57100874 4294901760
0.28071871 0.34287867 0.074369565 4294901760
0.010371354 0.43150535 0.14756235 4294901760
0.5560748 0.50983089 0.75503582 4294901760
0.48045877 0.47293308 0.46512523 4294901760
0.31147021 0.46808156 0.6460942 4294901760
0.76860166 0.082459256 0.22760472 4294901760
0.53933716 0.84425968 0.51295072 4294901760
0.44447315 0.19475256 0.80994147 4294901760
0.40443501 0.98104429 0.57470882 4294901760
0.71645331 0.21534351 0.88941544 4294901760
0.75096798 0.88461345 0.10513663 4294901760
0.80295235 0.90084249 0.75226504 4294901760
0.68927944 0.055633508 0.24828364 4294901760
0.0048141698 0.1910518 0.13844725 4294901760
0.77997065 0.2389998 0.94690502 4294901760
0.51332247 0.39277184 0.25632384 4294901760
0.53674728 0.70176131 0.034068406 4294901760
0.75757229 0.22037826 0.56689274 4294901760
0.40495721 0.44657543 0.30511817 4294901760
0.084676072 0.74092853 0.65206385 4294901760
0.054796219 0.91807723 0.70074874 4294901760
0.280449 0.04912407 0.892703 4294901760
0.9811011 0.10014609 0.41684431 4294901760
0.76703882 0.40879321 0.28436965 4294901760
0.79052073 0.55627471 0.19854374 4294901760
0.10798332 0.98133564 0.86843616 4294901760
0.93289781 0.52485895 0.45013589 4294901760
0.97427654 0.29876366 0.46649066 4294901760
0.40963784 0.32921621 0.48416746 4294901760
0.69096518 0.54480302 0.15317322 4294901760
0.88466865 0.9946906 0.20848463 4294901760
0.59027523 0.37926465 0.32145783 4294901760
0.58914101 0.71862304 0.4430756 4294901760
0.24739127 0.06299939 0.21229424 4294901760
0.96727967 0.89981318 0.20944041 4294901760
0.54789758 0.56940603 0.45409983 4294901760
0.2495206 0.14306235 0.30224013 4294901760
0.12481138 0.53905588 0.61632675 4294901760
0.0071311691 0.81080902 0.22779544 4294901760
0.030592829 0.041189142 0.52225345 4294901760
0.70999366 0.037574142 0.34207526 4294901760
0.55210388 0.78559303 0.54626644 4294901760
0.76591855 0.27436873 0.53283846 4294901760
0.33824754 0.53826183 0.60046953 4294901760
0.61617208 0.72383916 0.66938454 4294901760
0.29780141 0.90071899 0.71946985 4294901760
0.6606313 0.25294435 0.17868121 4294901760
0.20567764 0.2979672 0.70915437 4294901760
0.94649172 0.85277075 0.81482995 4294901760
0.5640142 0.43639135 0.59475297 4294901760
0.4456012 0.84730655 0.80560946 4294901760
0.54720986 0.52214152 0.82526863 4294901760
0.27629635 0.84697908 0.2019099 4294901760
0.53233784 0.40318066 0.44249693 4294901760
0.12153312 0.22759944 0.63427061 4294901760
0.0011620553 0.35390043 0.77341795 4294901760
0.88092107 0.65165728 0.0083612781 4294901760
0.72912985 0.64114898 0.96718818 4294901760
0.81082124 0.46006888 0.5034104 4294901760
0.9730193 0.37687883 0.5053516 4294901760
0.87755805 0.068030596 0.41565502 4294901760
0.71954513 0.52816147 0.79067844 4294901760
0.18583688 0.98681211 0.042532019 4294901760
0.82057583 0.16563401 0.85541838 4294901760
0.18444134 0.9649834 0.024218883 4294901760
0.66159391 0.18679228 0.71736652 4294901760
0.18884163 0.25518548 0.042392626 4294901760
0.9998697 0.35956046 0.58222717 4294901760
0.46719751 0.34769496 0.88841414 4294901760
0.30906174 0.71534896 0.027020775 4294901760
0.81529003 0.23918614 0.4818607 4294901760
0.6027267 0.51215398 0.98557961 4294901760
0.55080485 0.21835549 0.51976895 4294901760
0.66303051 0.53559953 0.15925264 4294901760
0.21052037 0.79783267 0.87743968 4294901760
0.90414971 0.79193956 0.10364018 4294901760
0.50325137 0.43121886 0.33171034 4294901760
0.94881576 0.1384837 0.063054338 4294901760
0.9660725 0.77310759 0.069319457 4294901760
0.19241478 0.13565321 0.30887353 4294901760
0.02525082 0.1094631 0.090951361 4294901760
0.22332329 0.76529253 0.21670549 4294901760
0.25236079 0.67238247 0.51917899 4294901760
0.017655866 0.60022515 0.216758 4294901760
0.40529901 0.027113365 0.74977422 4294901760
0.22612348 0.037739925 0.6559816 4294901760
0.79198676 0.23211093 0.57527268 4294901760
0.11065192 0.20215632 0.29417545 4294901760
0.64542484 0.74657279 0.81604636 4294901760
0.70678473 0.34733394 0.55035871 4294901760
0.32627821 0.67990136 0.9082607 4294901760
0.41098535 0.28307411 0.81500506 4294901760
0.74023688 0.30639383 0.19212703 4294901760
0.38595757 0.34728894 0.36356315 4294901760
0.071087584 0.21170621 0.6207794 4294901760
0.43279725 0.6431812 0.42198521 4294901760
0.20528211 0.49917942 0.7062065 4294901760
0.19088575 0.013467701 0.15942542 4294901760
0.21940072 0.72708082 0.65541774 4294901760
0.41123661 0.53143805 0.42966536 4294901760
0.15501124 0.53843421 0.59529299 4294901760
0.69443721 0.75676024 0.79086381 4294901760
0.11245245 0.5157693 0.70607162 4294901760
0.012514933 0.66108876 0.76665175 4294901760
0.32592937 0.42225492 0.19751075 4294901760
0.3828885 0.46855512 0.56548315 4294901760
0.73672223 0.72929615 0.47965324 4294901760
0.483145 0.072386675 0.11097218 4294901760
0.39592454 0.75944561 0.96416926 4294901760
0.7263751 0.83988273 0.70569718 4294901760
0.60250652 0.24360479 0.047639929 4294901760
0.60251862 0.7273773 0.26531455 4294901760
0.19740775 0.96402842 0.88976824 4294901760
0.91878819 0.41963834 0.99989682 4294901760
0.70427328 0.90534824 0.95236301 4294901760
0.42722216 0.95672619 0.43479368 4294901760
0.49670094 0.074797168 0.41144177 4294901760
0.45403895 0.11439814 0.037227884 4294901760
0.52785152 0.24749534 0.90865785 4294901760
0.02978974 0.41619077 0.92575979 4294901760
0.45693746 0.51074028 0.58235395 4294901760
0.013759972 0.50270677 0.31170681 4294901760
0.81577307 0.61833274 0.93032157 4294901760
0.24242041 0.16760628 0.33656862 4294901760
0.39389488 0.65516198 0.87757498 4294901760
0.060490727 0.54584473 0.94563431 4294901760
0.42607585 0.64811701 0.57408333 4294901760
0.85471922 0.41609263 0.82176596 4294901760
0.55190682 0.13871671 0.053048141 4294901760
0.20889686 0.29360574 0.64952523 4294901760
0.47191465 0.71984279 0.028965166 4294901760
0.76599163 0.70167488 0.091350101 4294901760
0.3879635 0.50949526 0.36578861 4294901760
0.60750347 0.20663334 0.71909088 4294901760
0.8759625 0.85401273 0.73987859 4294901760
0.8096202 0.66502911 0.7280044 4294901760
0.6016202 0.48486122 0.060663376 4294901760
0.70151818 0.90594041 0.739034 4294901760
0.68626195 0.90684003 0.4413515 4294901760
0.0066774329 0.14317562 0.75701028 4294901760
0.1644237 0.59669918 0.27187663 4294901760
0.76072818 0.1878853 0.35948357 4294901760
0.5382452 0.36716798 0.48770458 4294901760
0.33949691 0.32751834 0.33673647 4294901760
0.56792217 0.78202349 0.43702984 4294901760
0.62922812 0.80382901 0.97260708 4294901760
0.063864246 0.30080694 0.98523736 4294901760
0.62559456 0.81322968 0.93160707 4294901760
0.64692307 0.021022223 0.76521647 4294901760
0.20612003 0.75406259 0.25004348 4294901760
0.68411297 0.076537818 0.16961677 4294901760
0.37015688 0.64557105 0.21566218 4294901760
0.75688446 0.10633548 0.078808151 4294901760
0.88515753 0.93469524 0.16041091 4294901760
0.8746137 0.71800822 0.012458066 4294901760
0.013848202 0.73718131 0.51171041 4294901760
0.90219069 0.28886703 0.22013849 4294901760
0.4861992 0.24509512 0.42392141 4294901760
0.62926942 0.45893732 0.10147149 4294901760
0.87998575 0.81978118 0.92801702 4294901760
0.157933 0.12915243 0.90753847 4294901760
0.51119369 0.89283746 0.25954551 4294901760
0.47262406 0.20027116 0.39120114 4294901760
0.37538105 0.44259003 0.04445529 4294901760
0.90861529 0.12727906 0.77027661 4294901760
0.72123468 0.63985687 0.93723518 4294901760
0.8745327 0.18069217 0.76121175 4294901760
0.96920991 0.66351616 0.13599375 4294901760
0.57108128 0.67492115 0.97737467 4294901760
0.65844834 0.17711252 0.59965372 4294901760
0.6471895 0.17624231 0.86474085 4294901760
0.20371796 0.20896873 0.1169329 4294901760
0.90794325 0.42851937 0.27781036 4294901760
0.45549101 0.72805601 0.12330775 4294901760
0.025692906 0.11626519 0.60934681 4294901760
0.32689577 0.53279227 0.48580095 4294901760
0.81185228 0.48840353 0.37719941 4294901760
0.2867468 0.6406278 0.017772989 4294901760
0.89376646 0.20751442 0.65570289 4294901760
0.16303889 0.48926723 0.35110059 4294901760
0.14351952 0.56994849 0.11562493 4294901760
0.15596688 0.24891484 0.34725434 4294901760
0.45406771 0.56821114 0.34885311 4294901760
0.65405571 0.36083263 0.79501897 4294901760
0.30449343 0.20649502 0.20403522 4294901760
0.84751707 0.60189003 0.13749027 4294901760
0.41493812 0.012406877 0.29118958 4294901760
0.58257419 0.85271955 0.72016221 4294901760
0.017160421 0.30735475 0.49295789 4294901760
0.29890916 0.74989831 0.79042614 4294901760
0.49043715 0.22819757 0.49329221 4294901760
0.83209926 0.041837119 0.31581557 4294901760
0.92229581 0.79393488 0.3325831 4294901760
0.20155428 0.067280218 0.19069202 4294901760
0.98727411 0.7579543 0.5288862 4294901760
0.61662793 0.048444346 0.64004338 4294901760
0.17486635 0.52050883 0.67157704 4294901760
0.29091051 0.33662346 0.22937356 4294901760
0.10131066 0.74471819 0.93558842 4294901760
0.75585884 0.20359053 0.77444685 4294901760
0.88149792 0.11054664 0.49978212 4294901760
0.083420135 0.20678632 0.79148263 4294901760
0.23937677 0.49619406 0.10251725 4294901760
0.75673026 0.39655685 0.31455186 4294901760
0.41802251 0.27887854 0.35051373 4294901760
0.83332974 0.94775635 0.70852393 4294901760
0.77659148 0.79362196 0.7060374 4294901760
0.039249539 0.66627288 0.58117318 4294901760
0.053675003 0.51887798 0.57813162 4294901760
0.32563025 0.59769273 0.30823725 4294901760
0.72370881 0.20090142 0.35057768 4294901760
0.6598193 0.82817394 0.80924344 4294901760
0.63901162 0.020392345 0.082312845 4294901760
0.9035722 0.68963552 0.57480377 4294901760
0.40572357 0.55408126 0.17346376 4294901760
0.61321318 0.12624396 0.69172132 4294901760
0.7998535 0.46235609 0.24979563 4294901760
0.094149768 0.82096273 0.80937475 4294901760
0.81545132 0.59613717 0.9031238 4294901760
0.37068072 0.81343514 0.36012697 4294901760
0.059548039 0.3545399 0.84159601 4294901760
0.32899046 0.11481907 0.24750493 4294901760
0.00055066252 0.32935703 0.39317605 4294901760
0.89919245 0.080493353 0.63083768 4294901760
0.26531866 0.63848865 0.67290211 4294901760
0.90864283 0.037268624 0.68065405 4294901760
0.43538496 0.56416941 0.16436727 4294901760
0.4763816 0.81906849 0.27818713 4294901760
0.64387107 0.51324159 0.93388385 4294901760
0.089849107 0.71970165 0.61647034 4294901760
0.44884953 0.77175248 0.84075612 4294901760
0.54291964 0.6169771 0.26710865 4294901760
0.61310804 0.5533694 0.31662735 4294901760
0.82773286 0.70751977 0.048401494 4294901760
0.81587946 0.42589912 0.98169279 4294901760
0.3549625 0.83467895 0.46647176 4294901760
0.40959853 0.76399577 0.14941296 4294901760
0.84715241 0.84966391 0.23638274 4294901760
0.68594402 0.58111125 0.41347918 4294901760
0.03668049 0.010382544 0.93642384 4294901760
0.55775702 0.50678027 0.6180281 4294901760
0.70112073 0.39298376 0.59996814 4294901760
0.64036542 0.22314282 0.64596754 4294901760
0.085177563 0.45399812 0.66907299 4294901760
0.40509731 0.0076975874 0.035547204 4294901760
0.69794869 0.43047792 0.26022825 4294901760
0.5961048 0.025030151 0.089072309 4294901760
0.90145779 0.41093159 0.45948341 4294901760
0.71827006 0.075295277 0.60148799 4294901760
0.70320565 0.5629673 0.32537413 4294901760
0.5140695 0.27700418 0.99549013 4294901760
0.50367612 0.58276683 0.19844764 4294901760
0.38480744 0.42210695 0.56450266 4294901760
0.88160014 0.53489196 0.58917999 4294901760
0.023673333 0.14232977 0.047045149 4294901760
0.51814485 0.4340094 0.40030685 4294901760
0.19709776 0.24614182 0.32634056 4294901760
0.80203617 0.19122773 0.20513286 4294901760
0.81281823 0.30093747 0.2456369 4294901760
0.33199942 0.64309096 0.85168731 4294901760
0.37013862 0.63219321 0.13121171 4294901760
0.75124818 0.26042613 0.012324847 4294901760
0.13071644 0.51725852 0.94491899 4294901760
0.75584811 0.34649003 0.41947547 4294901760
0.75907826 0.65681779 0.32637933 4294901760
0.91879851 0.34871301 0.73371369 4294901760
0.3888633 0.80062103 0.58339167 4294901760
0.50509167 0.57483655 0.63893288 4294901760
0.85787129 0.40754452 0.61223644 4294901760
0.97952116 0.30825159 0.25039202 4294901760
0.71995068 0.69780225 0.42719129 4294901760
0.79535598 0.99225116 0.11125268 4294901760
0.28769344 0.77853721 0.52225465 4294901760
0.79369408 0.98507839 0.03115868 4294901760
0.11905447 0.25949538 0.0083256084 4294901760
0.12889874 0.27846682 0.047660682 4294901760
0.18155718 0.19405106 0.74948597 4294901760
0.83195096 0.41430062 0.35848746 4294901760
0.42632714 0.22941288 0.89606202 4294901760
0.96032465 0.52008927 0.4327175 4294901760
0.83372992 0.31661052 0.16187033 4294901760
0.91338968 0.85514796 0.94807929 4294901760
0.15304556 0.64337385 0.34076712 4294901760
0.69043928 0.83157539 0.38411885 4294901760
0.11964681 0.90662777 0.72649592 4294901760
0.62334645 0.47246012 0.92339247 4294901760
0.45242226 0.292474 0.07820788 4294901760
0.30840293 0.51236683 0.015337499 4294901760
0.73405945 0.85748053 0.66949624 4294901760
0.88679338 0.073779449 0.41818881 4294901760
0.46904701 0.83852357 0.14384471 4294901760
0.52517796 0.95680296 0.47583324 4294901760
0.34913522 0.13628887 0.16270769 4294901760
0.37937355 0.30418211 0.20440702 4294901760
0.95863569 0.5260604 0.29802307 4294901760
0.81832665 0.97226518 0.83399802 4294901760
0.40128067 0.80466968 0.88572037 4294901760
0.61327422 0.75413311 0.71054363 4294901760
0.67934656 0.02162258 0.81873411 4294901760
0.97348392 0.36082974 0.029685682 4294901760
0.065368667 0.59960616 0.59604949 4294901760
0.34659508 0.18110298 0.26128203 4294901760
0.92029029 0.66227365 0.7273733 4294901760
0.43692067 0.12218721 0.55511707 4294901760
0.26464766 0.20215794 0.20265077 4294901760
0.29172179 0.46609852 0.56118935 4294901760
0.94223791 0.77859223 0.32671905 4294901760
0.70976317 0.3470394 0.55303895 4294901760
0.82483274 0.61852288 0.23609453 4294901760
0.11052925 0.1166293 0.95417392 4294901760
0.27155939 0.57880372 0.84968871 4294901760
0.11613544 0.51979536 0.90378374 4294901760
0.64565784 0.34259674 0.89491761 4294901760
0.17316847 0.49344811 0.93738884 4294901760
0.34909797 0.38788342 0.013513235 4294901760
0.67602801 0.22462241 0.48840523 4294901760
0.82531226 0.68602437 0.5541988 4294901760
0.037763976 0.75767285 0.86678469 4294901760
0.22501285 0.9468109 0.88459748 4294901760
0.48064211 0.30918801 0.27037302 4294901760
0.82106847 0.89141423 0.83205831 4294901760
0.014040123 0.95854098 0.30087274 4294901760
0.89984703 0.65927804 0.73551756 4294901760
0.21861169 0.2525917 0.02190714 4294901760
0.37402481 0.44138286 0.8006869 4294901760
0.69213653 0.72442669 0.0037445375 4294901760
0.74584872 0.098028645 0.74813491 4294901760
0.17181499 0.77284759 0.90885383 4294901760
0.3327474 0.17475733 0.10070805 4294901760
0.2100295 0.52558559 0.43092898 4294901760
0.25865385 0.98496664 0.85312217 4294901760
0.7943306 0.057929266 0.32086977 4294901760
0.92960078 0.33107778 0.92434645 4294901760
0.74579304 0.31284267 0.63644332 4294901760
0.20693953 0.18138048 0.80430782 4294901760
0.0016202532 0.13112429 0.4308106 4294901760
0.15044662 0.087669194 0.74146926 4294901760
0.67708844 0.87398022 0.95277417 4294901760
0.79914343 0.55530918 0.9799118 4294901760
0.4605023 0.60448009 0.017608222 4294901760
0.56690133 0.053600792 0.95863777 4294901760
0.45004508 0.55993557 0.4855243 4294901760
0.57377028 0.94782305 0.24803922 4294901760
0.049511358 0.023028189 0.63997877 4294901760
0.99182737 0.12550268 0.23446441 4294901760
0.20352043 0.77819443 0.81892908 4294901760
0.38077903 0.80610621 0.95904386 4294901760
0.81519228 0.10361284 0.79512417 4294901760
0.63290846 0.73397523 0.41930977 4294901760
0.85749334 0.37892327 0.40556148 4294901760
0.094818592 0.80259877 0.47971004 4294901760
0.9747206 0.031630438 0.65063173 4294901760
0.80201292 0.79636568 0.18425548 4294901760
0.16990283 0.060732685 0.62547952 4294901760
0.53694439 0.73200679 0.65037525 4294901760
0.65071696 0.039168105 0.49421716 4294901760
0.91672784 0.38426274 0.21728382 4294901760
0.16117136 0.413028 0.71438563 4294901760
0.65246069 0.53069246 0.82456487 4294901760
0.18822931 0.061878666 0.31665063 4294901760
0.98278451 0.8669135 0.77658051 4294901760
0.20086779 0.12303732 0.32997191 4294901760
0.13415079 0.075935572 0.81033128 4294901760
0.025296198 0.70722079 0.22708711 4294901760
0.77311707 0.92084527 0.48985943 4294901760
0.27127814 0.92626131 0.93787038 4294901760
0.36339289 0.2244156 0.69909084 4294901760
0.11090083 0.60241538 0.64242435 4294901760
0.36065978 0.18996713 0.944314 4294901760
0.73264712 0.69153905 0.70227677 4294901760
0.51113343 0.69068217 0.94456983 4294901760
0.40454033 0.343824 0.83898616 4294901760
0.87150913 0.76290584 0.80607748 4294901760
0.49412808 0.3755551 0.024100434 4294901760
0.97845697 0.057775576 0.78801984 4294901760
0.10575709 0.78232545 0.24561571 4294901760
0.081944495 0.55172551 0.64407808 4294901760
0.34426317 0.8426975 0.40761334 4294901760
0.24667613 0.04152856 0.72221643 4294901760
0.80946833 0.30605495 0.89454705 4294901760
0.041856047 0.38868606 0.54537165 4294901760
0.26160344 0.56652576 0.26995078 4294901760
0.79348469 0.16762528 0.76703846 4294901760
0.39039233 0.86874282 0.46238193 4294901760
0.47301078 0.16485681 0.58603817 4294901760
0.2712847 0.45320129 0.13678601 4294901760
0.14279717 0.93376631 0.54907954 4294901760
0.94796574 0.54788643 0.63679832 4294901760
0.92345011 0.069356985 0.42779279 4294901760
0.26498419 0.89788777 0.5262028 4294901760
0.70001501 0.20854142 0.29302987 4294901760
0.74403679 0.42096138 0.88580209 4294901760
0.33040759 0.13099335 0.14959426 4294901760
0.49410197 0.57936412 0.30717888 4294901760
0.79270869 0.76931804 0.63498753 4294901760
0.031402387 0.26874909 0.46932364 4294901760
0.015089016 0.3236284 0.56093991 4294901760
0.030701853 0.061258048 0.8858254 4294901760
0.94544572 0.80655891 0.32788378 4294901760
0.70471352 0.58793765 0.97127217 4294901760
0.48169753 0.35210937 0.9672913 4294901760
0.67802417 0.01651966 0.62589508 4294901760
0.64872348 0.2884976 0.47053847 4294901760
0.8436051 0.73892212 0.67191005 4294901760
0.71665162 0.68475223 0.54203254 4294901760
0.025143646 0.645082 0.32799661 4294901760
0.090752609 0.37541285 0.59867644 4294901760
0.1292138 0.73853683 0.93489766 4294901760
0.90607911 0.28340858 0.2691687 4294901760
0.80476618 0.68134421 0.96974212 4294901760
0.74953932 0.15792419 0.45592105 4294901760
0.12087993 0.47289699 0.048362687 4294901760
0.6948362 0.56631541 0.24665353 4294901760
0.21457064 0.51222223 0.29948536 4294901760
0.26819664 0.81830519 0.72300881 4294901760
0.93230122 0.049542855 0.26725852 4294901760
0.65542823 0.97105944 0.60765785 4294901760
0.38616875 0.32655162 0.24500869 4294901760
0.4062669 0.23546773 0.66885573 4294901760
0.92554688 0.41485339 0.0094555942 4294901760
0.89391273 0.97107816 0.18303403 4294901760
0.10226717 0.01115503 0.37433183 4294901760
0.93805981 0.74131179 0.1744708 4294901760
0.40633938 0.28027001 0.20313697 4294901760
0.063273497 0.54861504 0.020237632 4294901760
0.49747008 0.7434954 0.68588477 4294901760
0.56389529 0.038719378 0.14470279 4294901760
0.46970353 0.71740848 0.95966911 4294901760
0.54253733 0.60282671 0.46038133 4294901760
0.50164115 0.010462849 0.58595771 4294901760
0.79473042 0.20253319 0.75843495 4294901760
0.75031954 0.76946187 0.35109639 4294901760
0.066434376 0.31088462 0.49798334 4294901760
0.087862261 0.59630704 0.79351461 4294901760
0.99799788 0.70132667 0.26736489 4294901760
0.52331787 0.079967931 0.472177 4294901760
0.77174145 0.27848682 0.3590847 4294901760
0.86600775 0.9970811 0.71159863 4294901760
0.91766989 0.48032415 0.26943794 4294901760
0.507626 0.91388035 0.8061505 4294901760
0.32972056 0.96139365 0.41337651 4294901760
0.55615568 0.15737544 0.68066007 4294901760
0.54053193 0.53519309 0.14421654 4294901760
0.87561935 0.89632601 0.64861953 4294901760
0.55692321 0.98067844 0.067202441 4294901760
0.25793591 0.4441345 0.73186398 4294901760
0.72762454 0.31464544 0.62624699 4294901760
0.36951131 0.31492662 0.091587082 4294901760
0.34962705 0.30264127 0.85072941 4294901760
0.63414526 0.48896715 0.097835883 4294901760
0.6239813 0.35073394 0.65413314 4294901760
0.36419418 0.55986375 0.79615229 4294901760
0.31935027 0.77396363 0.37831247 4294901760
0.19243944 0.62154561 0.76244289 4294901760
0.89087015 0.22262737 0.90116185 4294901760
0.20097718 0.25084066 0.27950943 4294901760
0.026670858 0.45113587 0.88936365 4294901760
0.53697526 0.57969683 0.0087135118 4294901760
0.18242171 0.65901738 0.38176078 4294901760
0.90686494 0.11705848 0.45210907 4294901760
0.45045894 0.090173542 0.45355165 4294901760
0.52520281 0.40729964 0.84616017 4294901760
0.074929506 0.18685277 0.33284104 4294901760
0.58378744 0.87979877 0.64090681 4294901760
0.02988972 0.57735503 0.22787786 4294901760
0.84724772 0.90857238 0.53533435 4294901760
0.96338135 0.63210076 0.077025004 4294901760
0.66119134 0.43493831 0.9462654 4294901760
0.81043345 0.7741245 0.12836662 4294901760
0.59783024 0.18182401 0.34892222 4294901760
0.8000195 0.46853969 0.15850897 4294901760
0.02699127 0.66273332 0.094725624 4294901760
0.44951901 0.97224933 0.027758701 4294901760
0.66894662 0.72772789 0.95264637 4294901760
0.068676874 0.68392444 0.76033604 4294901760
0.3037726 0.87400281 0.75472581 4294901760
0.8634609 0.38757959 0.24030057 4294901760
0.022261392 0.14666305 0.54360169 4294901760
0.58062041 0.64763355 0.016326236 4294901760
0.22441287 0.72333872 0.55663443 4294901760
0.6502589 0.66969025 0.44852653 4294901760
0.81014651 0.22174117 0.9065749 4294901760
0.92307347 0.441524 0.13666788 4294901760
0.70275557 0.047481768 0.48732835 4294901760
0.47780412 0.13375987 0.33394137 4294901760
0.12616657 0.27188042 0.56116045 4294901760
0.91074193 0.26028809 0.26842558 4294901760
0.86454767 0.80922377 0.13400158 4294901760
0.23196594 0.013499988 0.62820095 4294901760
0.11495464 0.92154813 0.26646566 4294901760
0.77317065 0.49641791 0.45344868 4294901760
0.18382081 0.73957509 0.91863275 4294901760
0.077463642 0.33238849 0.5704872 4294901760
0.75427514 0.99279386 0.7557019 4294901760
0.6539188 0.11991404 0.50870389 4294901760
0.72209632 0.64011443 0.93505454 4294901760
0.411075 0.15963434 0.87967128 4294901760
0.67782497 0.99831313 0.88157034 4294901760
0.30648071 0.65265584 0.47938386 4294901760
0.9403286 0.037550911 0.077880926 4294901760
0.50929534 0.10522123 0.16524374 4294901760
0.77045643 0.28003299 0.84668225 4294901760
0.064937592 0.64040887 0.91894358 4294901760
0.16495542 0.53369081 0.79886377 4294901760
0.14962623 0.74659097 0.49973658 4294901760
0.068532437 0.98441279 0.16027816 4294901760
0.82030582 0.45065126 0.23521678 4294901760
0.99116391 0.22634245 0.96627408 4294901760
0.74034685 0.69026721 0.78551036 4294901760
0.051246315 0.77924597 0.23496661 4294901760
0.55847073 0.68473369 0.18856634 4294901760
0.22675094 0.47949544 0.25335684 4294901760
0.0086598145 0.90967172 0.13604727 4294901760
0.19817352 0.61776853 0.33193314 4294901760
0.63735533 0.23355974 0.81536645 4294901760
0.21027555 0.60335422 0.47734419 4294901760
0.99459797 0.21854329 0.41267177 4294901760
0.69618762 0.36091369 0.42566705 4294901760
0.46753764 0.36827001 0.12059764 4294901760
0.99933159 0.47150859 0.72887307 4294901760
0.11639773 0.82826406 0.39927265 4294901760
0.17330131 0.88628614 0.47621906 4294901760
0.34273168 0.88109213 0.59899127 4294901760
0.28964385 0.14849703 0.81930113 4294901760
0.83130413 0.51206261 0.77598059 4294901760
0.002552588 0.038378935 0.48193771 4294901760
0.00078127335 0.68770307 0.99142957 4294901760
0.56464982 0.50372475 0.32539767 4294901760
0.54299676 0.12486849 0.71816319 4294901760
0.016944638 0.75200868 0.95817977 4294901760
0.69814533 0.85482633 0.80064243 4294901760
0.93071383 0.84302658 0.91688251 4294901760
0.1274832 0.16528822 0.91193557 4294901760
0.67299181 0.67008269 0.092793874 4294901760
0.15140562 0.19646533 0.86389869 4294901760
0.96362466 0.62825334 0.52624583 4294901760
0.37204108 0.096315116 0.32868654 4294901760
0.58475411 0.50883913 0.8752588 4294901760
0.16552578 0.6084218 0.56244802 4294901760
0.49518165 0.96323353 0.4099609 4294901760
0.58839113 0.66395402 0.85879552 4294901760
0.60634851 0.68325418 0.31441981 4294901760
0.87975681 0.4450542 0.57626843 4294901760
0.99035203 0.38184792 0.71655494 4294901760
0.58233047 0.18554148 0.36337242 4294901760
0.090385236 0.17760584 0.7923559 4294901760
0.35123473 0.7556141 0.60653365 4294901760
0.71084833 0.47255009 0.5991801 4294901760
0.93939769 0.39909482 0.52708811 4294901760
0.24153897 0.87946743 0.99297804 4294901760
0.46572018 0.017356504 0.2993232 4294901760
0.87040347 0.01161328 0.00025098689 4294901760
0.38420779 0.5012598 0.017551268 4294901760
0.74146616 0.98282993 0.97888464 4294901760
0.18227494 0.98590082 0.69929302 4294901760
0.14412844 0.41479465 0.080741256 4294901760
0.60713249 0.37150797 0.14885747 4294901760
0.67780834 0.072711058 0.064214788 4294901760
0.011653855 0.23866196 0.11483546 4294901760
0.62998897 0.96176577 0.92230403 4294901760
0.080510706 0.570153 0.76657486 4294901760
0.40474901 0.56935745 0.73212379 4294901760
0.73216766 0.080507532 0.034885317 4294901760
0.70256978 0.51301056 0.76013064 4294901760
0.93250549 0.81701887 0.46399432 4294901760
0.79341733 0.043030132 0.67959434 4294901760
0.66986066 0.34449852 0.2245018 4294901760
0.59569985 0.991925 0.50597423 4294901760
0.41376486 0.37972325 0.75087935 4294901760
0.38989249 0.83557999 0.051201142 4294901760
0.3833721 0.56199986 0.54856539 4294901760
0.95817232 0.97031468 0.38788861 4294901760
0.059444394 0.38936171 0.44498527 4294901760
0.016649639 0.28621596 0.96163189 4294901760
0.90684247 0.48983976 0.67822933 4294901760
0.87250268 0.72770774 0.259491 4294901760
0.57123578 0.20439598 0.08757621 4294901760
0.40830463 0.66356105 0.67022723 4294901760
0.56170917 0.4460451 0.76936126 4294901760
0.25119579 0.85496414 0.21760632 4294901760
0.6294533 0.051528521 0.48592094 4294901760
0.020924861 0.75829089 0.56141835 4294901760
0.28881517 0.0091132922 0.27465183 4294901760
0.70056355 0.2650744 0.52446711 4294901760
0.29788578 0.8707087 0.5250296 4294901760
0.70410335 0.52109063 0.6617794 4294901760
0.53586936 0.97774339 0.39092803 4294901760
0.85083091 0.031088091 0.34032309 4294901760
0.43836382 0.85598046 0.84484977 4294901760
0.73138183 0.21982333 0.84318054 4294901760
0.88224041 0.85874933 0.8050912 4294901760
0.070065811 0.67640537 0.99975872 4294901760
0.90620708 0.63579851 0.2104051 4294901760
0.11185115 0.57200408 0.85341173 4294901760
0.30061352 0.053766757 0.7627207 4294901760
0.017511243 0.16880314 0.71675473 4294901760
0.69067043 0.31182104 0.82773727 4294901760
0.38860112 0.18561307 0.68323141 4294901760
0.77731884 0.50524747 0.5695231 4294901760
0.59323853 0.2110347 0.55844879 4294901760
0.13789034 0.17318146 0.31236139 4294901760
0.77216679 0.4127318 0.24377386 4294901760
0.94041407 0.65140241 0.087834008 4294901760
0.83845818 0.73877138 0.63644671 4294901760
0.0098251235 0.40090603 0.87896913 4294901760
0.60384911 0.13972943 0.359797 4294901760
0.49890625 0.19998777 0.21171938 4294901760
0.63561529 0.79923612 0.5915755 4294901760
0.80837035 0.63714272 0.83028018 4294901760
0.26593396 0.14953709 0.33031473 4294901760
0.57536131 0.097149976 0.72122067 4294901760
0.65016186 0.24370457 0.19900373 4294901760
0.78820944 0.80014634 0.42424333 4294901760
0.51684391 0.75090522 0.53019524 4294901760
0.11887456 0.45849007 0.83567429 4294901760
0.083747566 0.53032577 0.87489635 4294901760
0.083448857 0.17125906 0.88488567 4294901760
0.43295506 0.95878267 0.73833019 4294901760
0.75922322 0.79579878 0.37640795 4294901760
0.030316673 0.1162215 0.26269224 4294901760
0.29762512 0.32539672 0.8383671 4294901760
0.26605693 0.82960606 0.69330174 4294901760
0.016288431 0.32900128 0.086525552 4294901760
0.88673073 0.52893871 0.21274419 4294901760
0.05456439 0.59613431 0.45803177 4294901760
0.19616087 0.22730426 0.30611238 4294901760
0.49491552 0.66483444 0.45111898 4294901760
0.81047958 0.028860694 0.090755247 4294901760
0.75044048 0.86878407 0.12990539 4294901760
0.030929456 0.99967295 0.89515626 4294901760
0.030737028 0.18077137 0.041817084 4294901760
0.74754626 0.6259473 0.75832659 4294901760
0.37366188 0.60349512 0.28052098 4294901760
0.023680711 0.55692601 0.9058544 4294901760
0.85704762 0.3405025 0.087087043 4294901760
0.58736485 0.75200611 0.28357166 4294901760
0.041483536 0.50652802 0.17008574 4294901760
0.3899402 0.15110852 0.4224523 4294901760
0.35148016 0.78384882 0.44342518 4294901760
0.70524108 0.040099952 0.73372948 4294901760
0.50892895 0.71107912 0.88664186 4294901760
0.96870404 0.72861958 0.61057484 4294901760
0.88204497 0.91333789 0.14144985 4294901760
0.96132338 0.96956927 0.89913839 4294901760
0.92516536 0.30506149 0.91101956 4294901760
0.89968055 0.1881658 0.052709233 4294901760
0.30335307 0.098058768 0.85160929 4294901760
0.91929215 0.8643204 0.47890103 4294901760
0.65321106 0.80818152 0.85345107 4294901760
0.41964361 0.3172493 0.075195245 4294901760
0.95374304 0.33763668 0.055687048 4294901760
0.63590813 0.25444442 0.8427484 4294901760
0.46559829 0.84500909 0.47382516 4294901760
0.04071039 0.78421336 0.73053944 4294901760
0.42774883 0.56888896 0.14115667 4294901760
0.94261247 0.9412812 0.55541039 4294901760
0.68673098 0.95630658 0.011294633 4294901760
0.51856411 0.9405666 0.5461722 4294901760
0.66723537 0.034696519 0.23528479 4294901760
0.30213532 0.075038336 0.92566603 4294901760
0.91936588 0.29057965 0.15622717 4294901760
0.86206275 0.57242465 0.10661939 4294901760
0.19410524 0.23066327 0.61922425 4294901760
0.71783406 0.54623961 0.94033456 4294901760
0.2956467 0.99517119 0.61712182 4294901760
0.87367511 0.065835036 0.026404176 4294901760
0.76318902 0.18255006 0.84504795 4294901760
0.70412767 0.64451063 0.98606092 4294901760
0.533755 0.96845353 0.25562343 4294901760
0.3525832 0.93629247 0.29933393 4294901760
0.37946177 0.3351422 0.77782226 4294901760
0.54085612 0.87421417 0.74650609 4294901760
0.1649581 0.2100215 0.28204456 4294901760
0.41461003 0.19070342 0.85997653 4294901760
0.086120456 0.37292418 0.30400467 4294901760
0.15512504 0.94181263 0.41517666 4294901760
0.35594624 0.037453581 0.87273794 4294901760
0.56476998 0.28374219 0.23509742 4294901760
0.11509664 0.93305194 0.84646666 4294901760
0.46712923 0.5621317 0.66759729 4294901760
0.97861785 0.089548551 0.61916673 4294901760
0.28787819 0.52301073 0.28353897 4294901760
0.18265368 0.50880218 0.55825847 4294901760
0.29598981 0.37071639 0.92449749 4294901760
0.99010587 0.38390031 0.50606984 4294901760
0.51934105 0.93405616 0.80105478 4294901760
0.032042436 0.65454745 0.26971582 4294901760
0.90080255 0.5810675 0.55300593 4294901760
0.80797237 0.074748702 0.2664721 4294901760
0.50883442 0.41411677 0.52175075 4294901760
0.97629476 0.38914713 0.74341089 4294901760
0.2348689 0.50948364 0.91565132 4294901760
0.013988111 0.58115357 0.012904651 4294901760
0.18752846 0.74195772 0.67515117 4294901760
0.8576811 0.47318265 0.25540328 4294901760
0.013905832 0.94270575 0.35886505 4294901760
0.57086325 0.8012495 0.87722206 4294901760
0.78856862 0.85150677 0.15033004 4294901760
0.96561307 0.5502699 0.47856295 4294901760
0.46765512 0.65306097 0.28917122 4294901760
0.34172213 0.47222772 0.95897484 4294901760
0.59724724 0.71384847 0.61432678 4294901760
0.061733577 0.78200006 0.077184707 4294901760
0.51253891 0.20692891 0.6448369 4294901760
0.88623631 0.42411083 0.42274255 4294901760
0.95407361 0.73226142 0.48365739 4294901760
0.46871638 0.92066491 0.71297032 4294901760
0.028557669 0.70783222 0.37311903 4294901760
0.23671609 0.42201573 0.227007 4294901760
0.0013019937 0.63580489 0.22032852 4294901760
0.71184856 0.04148268 0.97014952 4294901760
0.61478406 0.6288082 0.15817483 4294901760
0.4788208 0.65365636 0.89142603 4294901760
0.74756849 0.087643281 0.79448688 4294901760
0.92421585 0.42536753 0.26993459 4294901760
0.89381421 0.31090692 0.66812271 4294901760
0.12809481 0.83057851 0.1123009 4294901760
0.26099926 0.42185509 0.38293353 4294901760
0.73120075 0.89119929 0.20893766 4294901760
0.72544962 0.29281196 0.48331434 4294901760
0.80048674 0.53032357 0.46875426 4294901760
0.0083084553 0.7943933 0.61912119 4294901760
0.80085832 0.96649706 0.31231588 4294901760
0.29316932 0.94141507 0.95517725 4294901760
0.31387919 0.89876735 0.37429446 4294901760
0.3622981 0.23118837 0.56347591 4294901760
0.36773977 0.51181316 0.49111432 4294901760
0.47622791 0.26243711 0.24269354 4294901760
0.84048098 0.41792512 0.98127133 4294901760
0.65022135 0.7835412 0.160951 4294901760
0.54882461 0.3079159 0.43819636 4294901760
0.32046917 0.33227208 0.55573219 4294901760
0.35137123 0.9634887 0.44554254 4294901760
0.027588371 0.73770851 0.17569704 4294901760
0.70246333 0.068329044 0.15740995 4294901760
0.75818563 0.23646584 0.85401434 4294901760
0.64468277 0.32690114 0.36020753 4294901760
0.86496955 0.074477449 0.31637883 4294901760
0.18050033 0.74362743 0.086749099 4294901760
0.33618599 0.92544514 0.71869862 4294901760
0.16476882 0.037210949 0.5144878 4294901760
0.22184926 0.27799985 0.89552885 4294901760
0.26441509 0.019671254 0.6813944 4294901760
0.0048768199 0.41897315 0.11114814 4294901760
0.76874357 0.83662957 0.58016968 4294901760
0.96437979 0.84522766 0.18704747 4294901760
0.13115422 0.91900927 0.7379809 4294901760
0.9896698 0.42383394 0.093875594 4294901760
0.076267362 0.06004088 0.26574197 4294901760
0.68723172 0.055534258 0.2060426 4294901760
0.20954064 0.35489738 0.32725304 4294901760
0.60887104 0.90779728 0.46332142 4294901760
0.36689731 0.30585554 0.23413101 4294901760
0.41035032 0.064039029 0.38458899 4294901760
0.93595231 0.29447651 0.47017401 4294901760
0.45483956 0.78684032 0.50805116 4294901760
0.80247128 0.55395442 0.35009587 4294901760
0.22881657 0.1438749 0.72965068 4294901760
0.53536922 0.51855612 0.63766772 4294901760
0.48987946 0.45210198 0.70262331 4294901760
0.6940065 0.90123206 0.52842146 4294901760
0.73723584 0.57977587 0.48737413 4294901760
0.0470354 0.70002478 0.58114558 4294901760
0.8236686 0.64841419 0.78415 4294901760
0.90164763 0.18214689 0.71666068 4294901760
0.061033711 0.65576226 0.39215791 4294901760
0.056150116 0.96662515 0.98234826 4294901760
0.54856813 0.44513026 0.74598712 4294901760
0.86396968 0.15469778 0.13507827 4294901760
0.80964875 0.90011179 0.89477432 4294901760
0.78566772 0.26736385 0.41082799 4294901760
0.36137024 0.79216546 0.099830203 4294901760
0.55030513 0.29841003 0.91412419 4294901760
0.3160207 0.20778546 0.8359791 4294901760
0.10469632 0.42969322 0.79199874 4294901760
0.29289296 0.42405844 0.26122442 4294901760
0.50598443 0.28470907 0.7311967 4294901760
0.89803779 0.43612778 0.5269013 4294901760
0.21120712 0.3007203 0.94009882 4294901760
0.8925209 0.63673955 0.27788931 4294901760
0.33870393 0.84488517 0.7386716 4294901760
0.57391459 0.5486148 0.91974807 4294901760
0.74571049 0.46742755 0.56815261 4294901760
0.4431006 0.7688092 0.93467945 4294901760
0.5012846 0.93598652 0.12247686 4294901760
0.78531891 0.78954935 0.81831104 4294901760
0.82683796 0.96153879 0.67458534 4294901760
0.73737574 0.46321988 0.10874914 4294901760
0.16340199 0.83528167 0.29624021 4294901760
0.069026925 0.89783728 0.003179125 4294901760
0.46887636 0.94330883 0.84146506 4294901760
0.11832497 0.16108169 0.95881253 4294901760
0.12223901 0.22848852 0.83345747 4294901760
0.33502242 0.7890957 0.215497 4294901760
0.23404339 0.32582462 0.26280504 4294901760
0.54012227 0.37217972 0.75690663 4294901760
0.15674713 0.37022993 0.55865961 4294901760
0.89658499 0.55674911 0.55607373 4294901760
0.36750677 0.77726167 0.4821265 4294901760
0.15311509 0.36164877 0.94084853 4294901760
0.02558744 0.79358023 0.48116469 4294901760
0.58609378 0.21405332 0.67738724 4294901760
0.12043545 0.024408905 0.20995726 4294901760
0.98990601 0.90010935 0.01216657 4294901760
0.51348615 0.99206364 0.46045062 4294901760
0.77878523 0.47148809 0.48818186 4294901760
0.41606569 0.23521294 0.020843163 4294901760
0.21653169 0.18724839 0.98342979 4294901760
0.0049747885 0.36415094 0.050290361 4294901760
0.86087787 0.20266151 0.57479781 4294901760
0.66064191 0.87078375 0.39354765 4294901760
0.73807091 0.17501785 0.27380303 4294901760
0.97459733 0.10676001 0.47263548 4294901760
0.15680051 0.41723996 0.68516004 4294901760
0.10101961 0.68588597 0.73694032 4294901760
0.50158167 0.45661205 0.53417361 4294901760
0.84798813 0.03886281 0.67275405 4294901760
0.28652677 0.92584294 0.89481944 4294901760
0.89193952 0.1966362 0.63150722 4294901760
0.69867128 0.74285597 0.69117957 4294901760
0.14088525 0.80214733 0.7982797 4294901760
0.16200794 0.40680525 0.067725718 4294901760
0.18673654 0.53433949 0.13695998 4294901760
0.21784025 0.28727338 0.39933491 4294901760
0.79078734 0.65987617 0.56824213 4294901760
0.17404307 0.29171595 0.62860554 4294901760
0.75615442 0.67379063 0.46460742 4294901760
0.54089957 0.028665444 0.89879787 4294901760
0.76876432 0.19725259 0.96957785 4294901760
0.095815472 0.62457585 0.71143436 4294901760
0.86516398 0.49089766 0.33326674 4294901760
0.37861535 0.14139529 0.53938401 4294901760
0.1095761 0.90402645 0.18894158 4294901760
0.73106831 0.35900459 0.34274414 4294901760
0.94400197 0.84024787 0.70417219 4294901760
0.054905605 0.36798677 0.33134881 4294901760
0.47495857 0.60719478 0.83891791 4294901760
0.32280046 0.78385669 0.24685307 4294901760
0.40670779 0.79165906 0.97691047 4294901760
0.49975631 0.26940885 0.4149482 4294901760
0.027929045 0.039237883 0.044919126 4294901760
0.47494051 0.85747057 0.9198491 4294901760
0.039415572 0.76257193 0.075651348 4294901760
0.92178196 0.087904386 0.93131304 4294901760
0.30536389 0.36718947 0.72943062 4294901760
0.29316762 0.77668238 0.54616153 4294901760
0.93176091 0.92309749 0.12313083 4294901760
0.56154257 0.91135037 0.3690308 4294901760
0.7238763 0.47053564 0.53487045 4294901760
0.52510983 0.36334714 0.74017298 4294901760
0.78072953 0.71297878 0.033052333 4294901760
0.10850951 0.23546335 0.58034509 4294901760
0.75632828 0.80466831 0.50681484 4294901760
0.19736177 0.22272311 0.49768183 4294901760
0.59348422 0.55426091 0.38833547 4294901760
0.6828742 0.39335105 0.92432487 4294901760
0.1187338 0.24482673 0.28785723 4294901760
0.31099036 0.95798403 0.96184981 4294901760
0.69070691 0.63181061 0.24395818 4294901760
0.74448538 0.32373497 0.4883047 4294901760
0.20684494 0.7338962 0.75054061 4294901760
0.45153052 0.12670761 0.64443111 4294901760
0.24168898 0.80095422 0.06445203 4294901760
0.82743877 0.80888373 0.22046094 4294901760
0.66191316 0.41327438 0.36769211 4294901760
0.96405697 0.021200005 0.96056527 4294901760
0.97121161 0.076010443 0.4314723 4294901760
0.13207835 0.44370788 0.32442352 4294901760
0.32300988 0.1911248 0.45350063 4294901760
0.6342392 0.17099553 0.053445332 4294901760
0.44352096 0.31373715 0.31109589 4294901760
0.53600013 0.15775025 0.62893105 4294901760
0.2617695 0.26350331 0.4319897 4294901760
0.68729961 0.33925787 0.3406938 4294901760
0.88264674 0.39888945 0.12332438 4294901760
0.046975277 0.93152571 0.97477126 4294901760
0.67755032 0.49680275 0.64852858 4294901760
0.62051642 0.95896727 0.8247416 4294901760
0.43661427 0.44825324 0.76803017 4294901760
0.90449214 0.080840364 0.059654959 4294901760
0.45305726 0.54818046 0.70137113 4294901760
0.55973858 0.36440471 0.98810315 4294901760
0.26114324 0.01842997 0.89525038 4294901760
0.94240797 0.37264094 0.34350765 4294901760
0.0034216014 0.53594595 0.43279341 4294901760
0.32924038 0.36901724 0.76111597 4294901760
0.58902991 0.37248743 0.12265769 4294901760
0.97238213 0.63748741 0.10026938 4294901760
0.37239021 0.99737436 0.10523413 4294901760
0.77226484 0.40718624 0.86930925 4294901760
0.41777748 0.030346852 0.28450158 4294901760
0.83524364 0.081250496 0.89452511 4294901760
0.9603709 0.91439337 0.7392453 4294901760
0.751912 0.13640943 0.62132061 4294901760
0.60146785 0.66368437 0.16704503 4294901760
0.32990444 0.97493112 0.15691486 4294901760
0.26957738 0.12032028 0.37517014 4294901760
0.48851982 0.94570541 0.17051898 4294901760
0.13757259 0.89056069 0.57328773 4294901760
0.34126383 0.45108154 0.58026266 4294901760
0.58545619 0.44344383 0.77736253 4294901760
0.21303928 0.74177253 0.77735758 4294901760
0.65183884 0.85226995 0.3284741 4294901760
0.75155783 0.83697444 0.84232461 4294901760
0.28540298 0.75339085 0.5793705 4294901760
0.81424904 0.92558575 0.23468812 4294901760
0.49563506 0.11046928 0.51560611 4294901760
0.81151116 0.84384966 0.35480618 4294901760
0.62562531 0.17090383 0.61468416 4294901760
0.92804801 0.20790163 0.48172134 4294901760
0.34176546 0.25423115 0.80320048 4294901760
0.20164536 0.50584972 0.16584334 4294901760
0.42157674 0.31535003 0.76152962 4294901760
0.050563484 0.6591875 0.82639837 4294901760
0.14665872 0.16721962 0.57119238 4294901760
0.36384374 0.83216161 0.1030953 4294901760
0.15835761 0.4773277 0.29995307 4294901760
0.21360269 0.077900425 0.64770734 4294901760
0.46024275 0.19661789 0.059933584 4294901760
0.37862933 0.80961478 0.20825106 4294901760
0.16259554 0.23640658 0.63908494 4294901760
0.28872955 0.92453206 0.36039427 4294901760
0.42872527 0.56201577 0.86946064 4294901760
0.25448993 0.82374698 0.17337658 4294901760
0.66339886 0.84986258 0.10439126 4294901760
0.006015711 0.53562236 0.6161679 4294901760
0.97284317 0.74532735 0.1054856 4294901760
0.45607802 0.75341189 0.38800272 4294901760
0.14199975 0.73256272 0.39248213 4294901760
0.32626352 0.45963299 0.96477979 4294901760
0.0021236222 0.63018739 0.99644977 4294901760
0.99552548 0.71312952 0.68823045 4294901760
0.99653536 0.84468287 0.0091210138 4294901760
0.5498932 0.22663076 0.98380941 4294901760
0.93354446 0.66755462 0.51999044 4294901760
0.10176679 0.28063563 0.56527418 4294901760
0.63923889 0.7825495 0.8430348 4294901760
0.90770924 0.66103601 0.27022982 4294901760
0.20776159 0.35922307 0.5165453 4294901760
0.82277459 0.041807368 0.293084 4294901760
0.80516249 0.42232665 0.12656547 4294901760
0.59789586 0.89303565 0.81084478 4294901760
0.46904635 0.81223506 0.73438096 4294901760
0.50326556 0.66007513 0.78206033 4294901760
0.39004618 0.89955759 0.025488494 4294901760
0.32738906 0.69038272 0.816109 4294901760
0.59437239 0.50134635 0.081365712 4294901760
0.69663578 0.90266979 0.87510514 4294901760
0.86904991 0.59637934 0.32301611 4294901760
0.36122933 0.4302516 0.15323496 4294901760
0.92583871 0.62908554 0.12366108 4294901760
0.14509633 0.14551061 0.56991875 4294901760
0.15564872 0.90336204 0.99821442 4294901760
0.5053851 0.50540328 0.77811122 4294901760
0.69773811 0.31785631 0.86827022 4294901760
0.78883195 0.29209813 0.91571409 4294901760
0.9358902 0.53859949 0.36948657 4294901760
0.84122801 0.65589845 0.12888111 4294901760
0.84750962 0.032343432 0.20063718 4294901760
0.82099104 0.79297322 0.28612879 4294901760
0.12448228 0.1473572 0.46777198 4294901760
0.40685207 0.6453284 0.95967716 4294901760
0.81808519 0.74998492 0.28341487 4294901760
0.93342829 0.219414 0.72881639 4294901760
0.34430262 0.53008455 0.23281164 4294901760
0.8163234 0.92199951 0.12566884 4294901760
0.78814286 0.94565827 0.80173177 4294901760
0.47723198 0.40853444 0.26452139 4294901760
0.99773651 0.5496586 0.91295254 4294901760
0.98011255 0.61051673 0.015963437 4294901760
0.59237432 0.37276599 0.49865636 4294901760
0.85109675 0.89824343 0.32766238 4294901760
0.94075322 0.89851868 0.16122827 4294901760
0.22673483 0.28434414 0.12169977 4294901760
0.28857198 0.24861272 0.95302379 4294901760
0.67624265 0.40547454 0.62805635 4294901760
0.43468624 0.22417386 0.31786937 4294901760
0.8975212 0.099151626 0.94499272 4294901760
0.98822862 0.41877097 0.25421849 4294901760
0.17704871 0.78061563 0.36280981 4294901760
0.9061687 0.79185647 0.82990414 4294901760
0.44242513 0.50539821 0.25417966 4294901760
0.24751237 0.2034677 0.27779248 4294901760
0.90316522 0.85909265 0.74143553 4294901760
0.47639292 0.49412197 0.19636144 4294901760
0.10159373 0.14356549 0.33230254 4294901760
0.5921334 0.96796215 0.63549119 4294901760
