# .PCD v0.7 - Point Cloud Data file format
VERSION 0.7
FIELDS x y z rgb
SIZE 4 4 4 4
TYPE F F F U
COUNT 1 1 1 1
WIDTH 1086
HEIGHT 1
VIEWPOINT 0 0 0 1 0 0 0
POINTS 1086
DATA ascii
0.32956252 0.5348525 0.49983668 4294901760
0.68180919 0.78952825 0.42835367 4294901760
0.31380114 0.61405057 0.82105523 4294901760
0.029811801 0.95584804 0.73732948 4294901760
0.22753119 0.76269615 0.66901881 4294901760
0.66953987 0.10636114 0.67102754 4294901760
0.23469768 0.21062388 0.81822252 4294901760
0.47758231 0.88231236 0.73854899 4294901760
0.57575321 0.83910137 0.008799905 4294901760
0.88015699 0.86555731 0.89439774 4294901760
0.50140423 0.92149019 0.80894321 4294901760
0.56041455 0.71585822 0.20763542 4294901760
0.081086121 0.88855606 0.33150929 4294901760
0.44079262 0.12519142 0.49340904 4294901760
0.88940275 0.87800139 0.15785368 4294901760
0.50510067 0.64874136 0.74776042 4294901760
0.18286319 0.38608494 0.14910933 4294901760
0.97283071 0.35703567 0.95365715 4294901760
0.46900466 0.035445813 0.74055046 4294901760
0.76406604 0.97444969 0.19143893 4294901760
0.37779903 0.96526194 0.036522791 4294901760
0.88986617 0.554582 0.28631076 4294901760
0.99245697 0.24331982 0.064326867 4294901760
0.52623945 0.71255302 0.70838547 4294901760
0.70278692 0.84107184 0.81688917 4294901760
0.35477301 0.1944502 0.85877401 4294901760
0.77152294 0.65618151 0.10279579 4294901760
0.92851943 0.88341105 0.60015672 4294901760
0.95851994 0.25116214 0.31473735 4294901760
0.28112566 0.741772 0.24261259 4294901760
0.45008245 0.28649983 0.90062177 4294901760
0.58472735 0.25529388 0.84574389 4294901760
0.74299228 0.41819033 0.51194388 4294901760
0.67887855 0.68330997 0.19018252 4294901760
0.22665246 0.47023705 0.16996865 4294901760
0.68755144 0.85278553 0.89721608 4294901760
0.93506682 0.76071817 0.77619976 4294901760
0.35333288 0.64065403 0.86120266 4294901760
0.53663921 0.19194622 0.29883254 4294901760
0.53285134 0.55272889 0.51450032 4294901760
0.85027605 0.98299539 0.89535433 4294901760
0.97858393 0.61701435 0.73169374 4294901760
0.39963123 0.68932241 0.14855412 4294901760
0.60424966 0.36575347 0.98006177 4294901760
0.08821252 0.66647619 0.83733088 4294901760
0.73315084 0.49310008 0.57725668 4294901760
0.53737456 0.72968096 0.7224341 4294901760
0.99211222 0.31979436 0.51672655 4294901760
0.58531576 0.047625773 0.027461158 4294901760
0.93790042 0.88647223 0.98925287 4294901760
0.0079744523 0.13334993 0.33870333 4294901760
0.84178394 0.3882015 0.37074581 4294901760
0.38121226 0.56369674 0.29814404 4294901760
0.56404603 0.047709148 0.84146369 4294901760
0.9151929 0.56453001 0.27165711 4294901760
0.9508608 0.33002788 0.15871045 4294901760
0.76886415 0.35958597 0.90775454 4294901760
0.043847423 0.6580981 0.95165855 4294901760
0.55390745 0.69597006 0.15125132 4294901760
0.87753391 0.69023335 0.82149887 4294901760
0.044935185 0.93401152 0.81334287 4294901760
0.82776648 0.08375781 0.78428835 4294901760
0.89076561 0.99009407 0.31502891 4294901760
0.40736067 0.064647928 0.80043584 4294901760
0.28424355 0.10992546 0.39615756 4294901760
0.70659977 0.65071774 0.80861127 4294901760
0.20188642 0.20916915 0.012446411 4294901760
0.96508586 0.24251205 0.94114572 4294901760
0.065575443 0.16789792 0.24913527 4294901760
0.31662187 0.16665581 0.46267253 4294901760
0.50807089 0.51832056 0.26935193 4294901760
0.67032772 0.80270606 0.13836172 4294901760
0.82755071 0.13096121 0.2875779 4294901760
0.076224335 0.02114949 0.82433677 4294901760
0.63847351 0.91546291 0.33360744 4294901760
0.2753689 0.51115322 0.85932499 4294901760
0.67769599 0.72763425 0.88282549 4294901760
0.17173839 0.26440084 0.17562528 4294901760
0.40308958 0.61657476 0.82189769 4294901760
0.081645928 0.060534645 0.35634232 4294901760
0.65564936 0.1784592 0.48743671 4294901760
0.78130502 0.26237419 0.33817643 4294901760
0.68763417 0.90912372 0.33687568 4294901760
0.41092536 0.14163369 0.62861276 4294901760
0.25709304 0.70160866 0.25258929 4294901760
0.071691528 0.055865042 0.14172246 4294901760
0.67658162 0.62413329 0.33764833 4294901760
0.58047223 0.068669863 0.64747 4294901760
0.90631217 0.13636208 0.41127852 4294901760
0.074075334 0.22056459 0.2561028 4294901760
0.79307055 0.17189108 0.72620982 4294901760
0.026991922 0.46044379 0.64190161 4294901760
0.18264484 0.41223723 0.63953495 4294901760
0.9015398 0.020893719 0.041313741 4294901760
0.62495458 0.30665678 0.96296251 4294901760
0.69145775 0.024469336 0.76008648 4294901760
0.98514313 0.90780294 0.83862221 4294901760
0.71141541 0.69159973 0.10062083 4294901760
0.30693802 0.84779406 0.75811839 4294901760
0.85917962 0.95217681 0.9929322 4294901760
0.56847745 0.66822296 0.92020309 4294901760
0.95978278 0.27329725 0.89848709 4294901760
0.14475903 0.34872243 0.10653071 4294901760
0.97005337 0.078392319 0.4183332 4294901760
0.53350204 0.66983289 0.044971868 4294901760
0.98625368 0.65113449 0.47088957 4294901760
0.084777847 0.12027217 0.031909943 4294901760
0.0042036395 0.38024104 0.016926022 4294901760
0.94561702 0.97106254 0.36198911 4294901760
0.9044618 0.97540301 0.58294892 4294901760
0.016369523 0.13465843 0.010586821 4294901760
0.47777191 0.15162228 0.11366463 4294901760
0.64289725 0.68998539 0.13559628 4294901760
0.24331656 0.035530005 0.14889921 4294901760
0.051495131 0.60050565 0.67716092 4294901760
0.22756273 0.13736716 0.2353259 4294901760
0.23968726 0.47250885 0.56041658 4294901760
0.14642975 0.26335835 0.98194736 4294901760
0.37910223 0.33824736 0.31750911 4294901760
0.3087818 0.36248901 0.75997841 4294901760
0.0060238354 0.36483386 0.98089713 4294901760
0.42221385 0.53537738 0.11682318 4294901760
0.82908994 0.55138093 0.54637611 4294901760
0.22008859 0.80364877 0.49411026 4294901760
0.46236178 0.5780282 0.67441058 4294901760
0.86276579 0.55432737 0.4196732 4294901760
0.96329337 0.73649186 0.89192289 4294901760
0.46010935 0.99873102 0.44220808 4294901760
0.14143319 0.56714511 0.34916252 4294901760
0.61545539 0.39801821 0.96392035 4294901760
0.23963547 0.90368569 0.70032728 4294901760
0.85297 0.38411665 0.026359696 4294901760
0.35422894 0.79339945 0.9814837 4294901760
0.73951811 0.59713346 0.90923971 4294901760
0.40451783 0.93584549 0.48308608 4294901760
0.9743852 0.52172828 0.93021363 4294901760
0.24494813 0.95063895 0.71793908 4294901760
0.99583036 0.28945756 0.77176154 4294901760
0.15653615 0.089051113 0.95847911 4294901760
0.88354498 0.24761087 0.85551834 4294901760
0.66352755 0.013032421 0.72186339 4294901760
0.50650924 0.93083775 0.99761569 4294901760
0.91053861 0.53535247 0.057731926 4294901760
0.56510586 0.22557911 0.8282693 4294901760
0.88639104 0.6335535 0.76796764 4294901760
0.85511786 0.9196822 0.052784324 4294901760
0.44140241 0.81997526 0.42246208 4294901760
0.16315658 0.21462236 0.27296039 4294901760
0.82142878 0.60022557 0.79128784 4294901760
0.61945742 0.33253548 0.087863281 4294901760
0.42783976 0.71504897 0.06796927 4294901760
0.78055483 0.12450897 0.79443914 4294901760
0.11778493 0.47540703 0.11613869 4294901760
0.79164374 0.073930539 0.21579376 4294901760
0.47646284 0.44710207 0.91240203 4294901760
0.0051298696 0.7589528 0.56288183 4294901760
0.50764513 0.02203501 0.054275081 4294901760
0.048684392 0.73251319 0.59988403 4294901760
0.25295159 0.023212457 0.46282321 4294901760
0.6000067 0.46983474 0.86641979 4294901760
0.54767567 0.65687388 0.28651446 4294901760
0.50528687 0.15062959 0.65301734 4294901760
0.091468222 0.16607152 0.77119762 4294901760
0.1771419 0.09985251 0.52385646 4294901760
0.2310973 0.63629806 0.32204124 4294901760
0.20139524 0.79422951 0.039142419 4294901760
0.035231736 0.41592938 0.0078970846 4294901760
0.63086176 0.29737315 0.72237641 4294901760
0.51668406 0.82021719 0.31030136 4294901760
0.023097977 0.91196889 0.96710134 4294901760
0.18451351 0.1695579 0.63541746 4294901760
0.49901462 0.4249478 0.61278522 4294901760
0.14166431 0.32775483 0.52190977 4294901760
0.6286639 0.89912534 0.0043578371 4294901760
0.7263754 0.33187887 0.69258052 4294901760
0.27745387 0.28127557 0.33725241 4294901760
0.39669004 0.22990008 0.075838178 4294901760
0.38634199 0.12342049 0.38766271 4294901760
0.20192848 0.65684283 0.55982101 4294901760
0.5279364 0.93461388 0.017477386 4294901760
0.63942331 0.33469912 0.84330964 4294901760
0.86781871 0.37922382 0.5425179 4294901760
0.81346488 0.28688821 0.078231856 4294901760
0.81879532 0.71259576 0.12880948 4294901760
0.71719867 0.037281103 0.60684907 4294901760
0.61273772 0.23646103 0.48966622 4294901760
0.50024378 0.91389453 0.37492433 4294901760
0.49454477 0.45328334 0.97088808 4294901760
0.7420153 0.95533717 0.53234679 4294901760
0.65032303 0.69359285 0.81903625 4294901760
0.83440942 0.64438534 0.65248793 4294901760
0.24229869 0.75617093 0.6221258 4294901760
0.2696082 0.31644279 0.16043888 4294901760
0.28006169 0.72760206 0.61795002 4294901760
0.043721907 0.19292164 0.96272731 4294901760
0.66257489 0.53051955 0.086431131 4294901760
0.82044232 0.20740072 0.18278451 4294901760
0.058841918 0.92611408 0.78558755 4294901760
0.43229726 0.13363717 0.82786971 4294901760
0.084065907 0.83414698 0.7219879 4294901760
0.11358126 0.30847478 0.35078752 4294901760
0.22654448 0.34278706 0.7732935 4294901760
0.63333035 0.71950275 0.48490167 4294901760
0.09112636 0.077541806 0.76723361 4294901760
0.095367283 0.04959847 0.83357614 4294901760
0.56072247 0.16044319 0.85397238 4294901760
0.59991831 0.99510211 0.18835053 4294901760
0.69855571 0.47867981 0.1452353 4294901760
0.95846003 0.24498864 0.22400884 4294901760
0.043948334 0.93845773 0.24281152 4294901760
0.092896357 0.2125694 0.87105554 4294901760
0.36755708 0.082559355 0.28988406 4294901760
0.87171036 0.8821193 0.33748311 4294901760
0.38705608 0.9959963 0.24796513 4294901760
0.90954024 0.69726461 0.57289028 4294901760
0.62661403 0.41824716 0.36438581 4294901760
0.85786164 0.40223172 0.85630637 4294901760
0.81818968 0.15065379 0.90312499 4294901760
0.38092574 0.93002003 0.37503931 4294901760
0.034361862 0.47685283 0.30549273 4294901760
0.093876198 0.29146606 0.60691446 4294901760
0.026252007 0.56178105 0.29805118 4294901760
0.74120516 0.86648744 0.97611898 4294901760
0.67187744 0.90315711 0.37930992 4294901760
0.43606368 0.24754255 0.39365914 4294901760
0.57709765 0.99997687 0.51084292 4294901760
0.22925758 0.54943097 0.026056841 4294901760
0.3582401 0.23477596 0.97021252 4294901760
0.52310175 0.42003438 0.37398723 4294901760
0.94832873 0.93150932 0.57212037 4294901760
0.91114736 0.15277185 0.62687081 4294901760
0.98979676 0.83743513 0.86510044 4294901760
0.21206798 0.89601928 0.16681612 4294901760
0.99867445 0.70743483 0.90500981 4294901760
0.80952394 0.47032738 0.043744165 4294901760
0.71044195 0.76436108 0.64700156 4294901760
0.26939037 0.17272133 0.80954814 4294901760
0.25636521 0.096808113 0.74388003 4294901760
0.59999943 0.065123312 0.33501634 4294901760
0.25998598 0.66059887 0.8662588 4294901760
0.42799014 0.98405933 0.72851771 4294901760
0.67862439 0.60453528 0.84003395 4294901760
0.40397206 0.1320255 0.9726485 4294901760
0.59489936 0.37612319 0.12560992 4294901760
0.75810099 0.0027698502 0.29012829 4294901760
0.94159836 0.69066942 0.40431219 4294901760
0.90069878 0.96621704 0.049447682 4294901760
0.62960452 0.029565198 0.14033139 4294901760
0.59132266 0.7003513 0.36865544 4294901760
0.41560891 0.75954974 0.41320786 4294901760
0.70697498 0.59833276 0.63627964 4294901760
0.92847943 0.10729469 0.18757027 4294901760
0.10646084 0.050791662 0.66436827 4294901760
0.67927951 0.49392405 0.77334338 4294901760
0.41496468 0.57014877 0.98036319 4294901760
0.44469056 0.34002259 0.93556666 4294901760
0.20411122 0.072509766 0.35328919 4294901760
0.8201288 0.23030275 0.87149906 4294901760
0.20820004 0.85285217 0.46353561 4294901760
0.045225371 0.20771916 0.50798732 4294901760
0.47764102 0.8757506 0.8418256 4294901760
0.27595991 0.47456169 0.17773537 4294901760
0.35216239 0.74917483 0.69841486 4294901760
0.0019993209 0.90433228 0.81668484 4294901760
0.36790437 0.13736208 0.38477588 4294901760
0.90279198 0.64754254 0.11339187 4294901760
0.62656462 0.9854607 0.15890031 4294901760
0.28952411 0.20286551 0.2094439 4294901760
0.23268625 0.05437813 0.041712176 4294901760
0.61874795 0.56376487 0.54726106 4294901760
0.68230152 0.36714971 0.35197079 4294901760
0.10174197 0.5112462 0.63189274 4294901760
0.84004217 0.26585045 0.71065527 4294901760
0.46366769 0.95731968 0.24674237 4294901760
0.23646364 0.66309649 0.24190761 4294901760
0.55793846 0.2718361 0.70075721 4294901760
0.39636576 0.93609095 0.19499785 4294901760
0.84760523 0.19830742 0.84427768 4294901760
0.70172489 0.59185398 0.40787849 4294901760
0.46679828 0.39555436 0.1596316 4294901760
0.84170133 0.31551507 0.07766334 4294901760
0.27252033 0.7515018 0.45996433 4294901760
0.80625659 0.49097908 0.76514035 4294901760
0.029546063 0.15326445 0.37314805 4294901760
0.13068932 0.9490822 0.52911532 4294901760
0.72199214 0.99554294 0.54207176 4294901760
0.57812434 0.72809625 0.45886815 4294901760
0.072073311 0.92168647 0.66994464 4294901760
0.92322028 0.94838297 0.17127547 4294901760
0.062734768 0.81465018 0.85912204 4294901760
0.84859937 0.344805 0.91487503 4294901760
0.094751261 0.89581048 0.68698287 4294901760
0.69248444 0.095336311 0.55943596 4294901760
0.49507886 0.49919602 0.33553091 4294901760
0.74340606 0.83115435 0.1277495 4294901760
0.0022165598 0.94178045 0.71656883 4294901760
0.98603559 0.56019628 0.94936025 4294901760
0.71294653 0.23078474 0.87037194 4294901760
0.84337229 0.490468 0.33149028 4294901760
0.0439029 0.63828045 0.56281698 4294901760
0.66580427 0.4887422 0.49007475 4294901760
0.15791826 0.038908206 0.10598147 4294901760
0.044236265 0.47261131 0.41692257 4294901760
0.38672125 0.25714356 0.54639429 4294901760
0.96298289 0.090183154 0.62377512 4294901760
0.58262271 0.49556577 0.65335625 4294901760
0.37283763 0.76132154 0.90701246 4294901760
0.69661516 0.96679896 0.57342386 4294901760
0.15050557 0.67510235 0.16838171 4294901760
0.13884825 0.95376021 0.95389748 4294901760
0.39346436 0.47538471 0.8396256 4294901760
0.99601072 0.58966702 0.82068181 4294901760
0.32532176 0.29868141 0.47182745 4294901760
0.99953055 0.58470726 0.9378832 4294901760
0.81005681 0.1253159 0.011676289 4294901760
0.065330528 0.14527832 0.40221786 4294901760
0.17687972 0.91153824 0.77422947 4294901760
0.77778077 0.78216749 0.94535005 4294901760
0.78263843 0.40486938 0.051856901 4294901760
0.37036058 0.72687298 0.3468523 4294901760
0.28668061 0.74076885 0.89195514 4294901760
0.10276744 0.071119741 0.82110363 4294901760
0.78552186 0.0044245506 0.02900316 4294901760
0.79284346 0.557841 0.46618497 4294901760
0.6665948 0.36376578 0.089724146 4294901760
0.11473166 0.10030264 0.35536611 4294901760
0.20803139 0.11910366 0.23210344 4294901760
0.49606848 0.78286904 0.80579758 4294901760
0.16240005 0.11068758 0.87964082 4294901760
0.033345494 0.40366375 0.43204024 4294901760
0.46021438 0.16782692 0.078389086 4294901760
0.68539923 0.073144905 0.87997037 4294901760
0.79451114 0.45733717 0.60299009 4294901760
0.14241657 0.87268603 0.41997617 4294901760
0.24451257 0.017106464 0.024897361 4294901760
0.94903243 0.048154917 0.22248091 4294901760
0.24513961 0.1021557 0.56585765 4294901760
0.32053033 0.67272407 0.92380011 4294901760
0.11204667 0.69408756 0.589378 4294901760
0.31196693 0.027657529 0.18583629 4294901760
0.66561311 0.41751802 0.24378142 4294901760
0.59208131 0.62994641 0.78064746 4294901760
0.72383785 0.48594558 0.25221202 4294901760
0.55130219 0.033376187 0.23821384 4294901760
0.72855115 0.04594579 0.5037272 4294901760
0.47874045 0.24238214 0.57658064 4294901760
0.4901484 0.26636189 0.98746175 4294901760
0.45665511 0.76081032 0.67344338 4294901760
0.19987021 0.59506625 0.7236051 4294901760
0.72743928 0.37074244 0.27335092 4294901760
0.85342628 0.0068363594 0.84040618 4294901760
0.73908186 0.91107833 0.66863501 4294901760
0.20530401 0.54719263 0.4883025 4294901760
0.92376184 0.55229032 0.26966318 4294901760
0.27258182 0.61405718 0.0046945033 4294901760
0.88602149 0.98370028 0.40857583 4294901760
0.34028566 0.0042340802 0.076443426 4294901760
0.003914129 0.33385092 0.33017424 4294901760
0.45710558 0.75029033 0.15189865 4294901760
0.98426253 0.17321044 0.45113397 4294901760
0.37103665 0.58216292 0.64847344 4294901760
0.47658232 0.25088403 0.86446393 4294901760
0.30825773 0.41090655 0.68384165 4294901760
0.66890246 0.79284984 0.68971217 4294901760
0.16245514 0.32437584 0.1216508 4294901760
0.9331392 0.654459 0.92134547 4294901760
0.11925704 0.63296264 0.22383934 4294901760
0.67079407 0.71001363 0.2314848 4294901760
0.62898672 0.57819933 0.9070757 4294901760
0.59123957 0.776586 0.64813572 4294901760
0.71983063 0.61079299 0.50938505 4294901760
0.84080195 0.1239991 0.39777356 4294901760
0.10319673 0.38117436 0.43119177 4294901760
0.31435555 0.80722129 0.64687324 4294901760
0.9944737 0.64795965 0.4331241 4294901760
0.96198267 0.61894798 0.88011909 4294901760
0.20183653 0.019258291 0.48997122 4294901760
0.047488414 0.72250527 0.31040195 4294901760
0.16427463 0.61003667 0.46323672 4294901760
0.42416438 0.81771833 0.26994354 4294901760
0.98960155 0.053189214 0.48891741 4294901760
0.55400932 0.098676085 0.24221659 4294901760
0.15030029 0.93906844 0.51535863 4294901760
0.33186644 0.48693874 0.071037233 4294901760
0.10567826 0.76969796 0.25577605 4294901760
0.81258529 0.093719766 0.88477951 4294901760
0.3981168 0.22219187 0.4274191 4294901760
0.32103345 0.79608703 0.13832974 4294901760
0.42139441 0.51590914 0.62161309 4294901760
0.51191884 0.17173015 0.57083362 4294901760
0.56988472 0.21979567 0.064306818 4294901760
0.19531906 0.3401098 0.8101455 4294901760
0.64503151 0.62225562 0.32349595 4294901760
0.76256639 0.93233418 0.53428072 4294901760
0.97370571 0.089313596 0.0091811502 4294901760
0.52105081 0.29653603 0.6160084 4294901760
0.77380604 0.52069294 0.50662792 4294901760
0.78771144 0.99316651 0.67098475 4294901760
0.69046313 0.54366052 0.54220933 4294901760
0.52888292 0.20745048 0.39248818 4294901760
0.1291609 0.37115118 0.5649389 4294901760
0.59569281 0.691957 0.59993333 4294901760
0.49693847 0.99772096 0.77445537 4294901760
0.83857417 0.19280989 0.76043564 4294901760
0.36881277 0.77952236 0.40326291 4294901760
0.504004 0.55109292 0.64536959 4294901760
0.73060936 0.43174741 0.67375743 4294901760
0.93110353 0.94623965 0.27385321 4294901760
0.94391155 0.60288721 0.5849328 4294901760
0.77765095 0.81089753 0.031143701 4294901760
0.80510825 0.36091799 0.75785035 4294901760
0.37654856 0.68137306 0.93716949 4294901760
0.2677772 0.94250453 0.97009599 4294901760
0.19792308 0.10169549 0.21984392 4294901760
0.82501024 0.8084237 0.30586118 4294901760
0.54655707 0.72643465 0.26281145 4294901760
0.32467693 0.52810049 0.14456016 4294901760
0.5350008 0.38668624 0.6482619 4294901760
0.77943152 0.50993609 0.72985852 4294901760
0.18982263 0.9647916 0.42904052 4294901760
0.54267138 0.78268629 0.79600883 4294901760
0.2823965 0.19954091 0.96496016 4294901760
0.2415648 0.14094514 0.79286093 4294901760
0.9285087 0.91806203 0.90355462 4294901760
0.16988608 0.80165839 0.65985638 4294901760
0.52567142 0.37487766 0.99812013 4294901760
0.42013875 0.5577243 0.85753256 4294901760
0.89984971 0.12075571 0.79087967 4294901760
0.41843614 0.52856046 0.33217949 4294901760
0.32778388 0.47305822 0.77782542 4294901760
0.69430095 0.3164272 0.25719798 4294901760
0.41973433 0.31179488 0.6700629 4294901760
0.052253656 0.79096848 0.70790458 4294901760
0.75183028 0.054623067 0.59592712 4294901760
0.77094084 0.70732337 0.10708442 4294901760
0.43732405 0.059631612 0.26625919 4294901760
0.83498198 0.56117117 0.96312815 4294901760
0.27864605 0.43776262 0.52382123 4294901760
0.64128768 0.68611848 0.10360706 4294901760
0.018248025 0.44370928 0.44690481 4294901760
0.71387613 0.47012019 0.53829634 4294901760
0.77390844 0.90465045 0.55753499 4294901760
0.17147709 0.15846154 0.014319895 4294901760
0.5840041 0.075501002 0.20919521 4294901760
0.85667139 0.85134453 0.41796565 4294901760
0.26817709 0.049667936 0.12953998 4294901760
0.98176616 0.37858191 0.15320209 4294901760
0.58353132 0.56314629 0.97762167 4294901760
0.10501096 0.12008483 0.99486274 4294901760
0.16621129 0.43646157 0.41607577 4294901760
0.74908775 0.28308612 0.63756365 4294901760
0.85914099 0.87299991 0.3456417 4294901760
0.18451573 0.071252607 0.69379228 4294901760
0.51573664 0.87136137 0.33324841 4294901760
0.85340023 0.27506933 0.24241097 4294901760
0.74607062 0.9309274 0.85734713 4294901760
0.52415353 0.63792312 0.2160202 4294901760
0.83913004 0.85456574 0.64819044 4294901760
0.53098243 0.35889322 0.5979808 4294901760
0.047328021 0.16619688 0.6156323 4294901760
0.42601895 0.53639698 0.084856361 4294901760
0.78750181 0.55867565 0.13597812 4294901760
0.99768198 0.76304084 0.87636781 4294901760
0.84015113 0.01360851 0.46180376 4294901760
0.82057106 0.38415214 0.76918417 4294901760
0.02091568 0.61015123 0.89794993 4294901760
0.98382533 0.34728533 0.026868431 4294901760
0.87175 0.57996702 0.56389391 4294901760
0.67454243 0.24523598 0.1579082 4294901760
0.4308548 0.30516845 0.41044027 4294901760
0.037221987 0.2809051 0.15692495 4294901760
0.1775562 0.72283286 0.38428783 4294901760
0.64935637 0.42005703 0.69740266 4294901760
0.57026678 0.11675537 0.51188952 4294901760
0.042036161 0.22018212 0.89894223 4294901760
0.032539949 0.66108471 0.050287254 4294901760
0.63882208 0.56141299 0.19726956 4294901760
0.91588581 0.58904344 0.091601588 4294901760
0.94833142 0.30233648 0.97266352 4294901760
0.68152183 0.9768523 0.73759031 4294901760
0.62479353 0.37750095 0.44398913 4294901760
0.58733398 0.95728093 0.38454536 4294901760
0.59671265 0.63737637 0.34503505 4294901760
0.59646797 0.88996267 0.65427709 4294901760
0.47329798 0.84932256 0.75658047 4294901760
0.72171682 0.53104252 0.57677567 4294901760
0.30570284 0.91331971 0.93855464 4294901760
0.26713842 0.70583254 0.86202902 4294901760
0.25898409 0.16387902 0.43051696 4294901760
0.95794892 0.33646315 0.38861838 4294901760
0.82218456 0.62132663 0.32074907 4294901760
0.20343842 0.52407163 0.93184155 4294901760
0.61998755 0.87984383 0.49927452 4294901760
0.04770574 0.67670292 0.85668427 4294901760
0.99261761 0.16836065 0.54792142 4294901760
0.80235398 0.9949041 0.10667831 4294901760
0.46349218 0.85484052 0.16970807 4294901760
0.94482124 0.33848462 0.54317826 4294901760
0.28394258 0.51679981 0.39574507 4294901760
0.63765031 0.55247098 0.24158715 4294901760
0.67885882 0.42399412 0.39359164 4294901760
0.25109914 0.57860827 0.54437834 4294901760
0.87098098 0.28436172 0.23760323 4294901760
0.80400169 0.15217008 0.89008725 4294901760
0.46520787 0.32331336 0.43292505 4294901760
0.6122911 0.82863152 0.40001425 4294901760
0.39291143 0.22972839 0.8595919 4294901760
0.5102011 0.20560464 0.2711705 4294901760
0.42345628 0.0034092604 0.69063491 4294901760
0.64456779 0.58872598 0.36832941 4294901760
0.36796883 0.326296 0.13192616 4294901760
0.012592325 0.75594485 0.42746341 4294901760
0.57852191 0.60815859 0.86770403 4294901760
0.25466046 0.43648681 0.97404677 4294901760
0.24306835 0.49022433 0.82375044 4294901760
0.38609582 0.31693262 0.72174311 4294901760
0.73601532 0.96177822 0.5041678 4294901760
0.69626993 0.47580063 0.4993358 4294901760
0.56731522 0.14128017 0.48132366 4294901760
0.20801257 0.23541433 0.35470906 4294901760
0.18559948 0.97643989 0.7573213 4294901760
0.10980935 0.52352262 0.44572833 4294901760
0.23796444 0.62225151 0.87397671 4294901760
0.979276 0.052418653 0.82154423 4294901760
0.078256898 0.27253622 0.30574933 4294901760
0.1485565 0.55642992 0.2985653 4294901760
0.6592989 0.020525321 0.43482637 4294901760
0.15104929 0.96094453 0.12374149 4294901760
0.56339645 0.13947038 0.62926102 4294901760
0.95107418 0.84291339 0.26457053 4294901760
0.14900051 0.71630549 0.96241236 4294901760
0.21448034 0.14413597 0.26154038 4294901760
0.26519591 0.16038448 0.89373088 4294901760
0.54369205 0.025274996 0.52103651 4294901760
0.57402945 0.67506337 0.47191951 4294901760
0.66061139 0.16938713 0.39960137 4294901760
0.61247897 0.43731147 0.85371739 4294901760
0.51536071 0.37988323 0.41867959 4294901760
0.070211753 0.57168037 0.63822049 4294901760
0.096444428 0.79250997 0.39196217 4294901760
0.67221314 0.83804095 0.56832212 4294901760
0.48423484 0.19594915 0.27803591 4294901760
0.17519209 0.4431904 0.3167021 4294901760
0.7030617 0.074908391 0.90085536 4294901760
0.97989833 0.39754912 0.53447193 4294901760
0.79451907 0.51655024 0.4850072 4294901760
0.67118835 0.94794989 0.49967569 4294901760
0.92280996 0.71335852 0.32695976 4294901760
0.044979237 0.33069038 0.23755021 4294901760
0.30549413 0.33411175 0.46064642 4294901760
0.40586513 0.98228079 0.42619193 4294901760
0.63201511 0.21179515 0.82145697 4294901760
0.63026154 0.32539093 0.34258714 4294901760
0.61617684 0.0091207344 0.69266254 4294901760
0.60222107 0.0954182 0.093825854 4294901760
0.57039058 0.97109032 0.55275339 4294901760
0.34661955 0.16279447 0.46122977 4294901760
0.67452186 0.38433799 0.63497758 4294901760
0.7791357 0.87828118 0.09967272 4294901760
0.6819331 0.90327036 0.61214709 4294901760
0.98597085 0.93092823 0.1278055 4294901760
0.0041337162 0.5990386 0.57406896 4294901760
0.33059171 0.9341144 0.89115489 4294901760
0.47023073 0.63068134 0.23940021 4294901760
0.160731 0.70813507 0.90647137 4294901760
0.36856845 0.50156569 0.10841735 4294901760
0.80547589 0.5082956 0.7788499 4294901760
0.18358961 0.10421906 0.42337233 4294901760
0.67541367 0.27023652 0.4465113 4294901760
0.60809606 0.56137145 0.26020938 4294901760
0.45434493 0.6940074 0.79197556 4294901760
0.50009048 0.33161151 0.98523611 4294901760
0.14173596 0.82937396 0.91889465 4294901760
0.89216006 0.92758292 0.95740694 4294901760
0.93169659 0.7145676 0.16715412 4294901760
0.27448398 0.71341902 0.94155812 4294901760
0.29492229 0.81510806 0.37014288 4294901760
0.73631632 0.51300788 0.46063742 4294901760
0.69590575 0.7402209 0.26727527 4294901760
0.19216566 0.80084646 0.73993438 4294901760
0.68682396 0.47071439 0.61500931 4294901760
0.81820005 0.59906554 0.92750514 4294901760
0.78335673 0.1001015 0.26996171 4294901760
0.4883965 0.28816834 0.19508085 4294901760
0.028394014 0.0078792879 0.46678045 4294901760
0.060030084 0.36248645 0.50974965 4294901760
0.17135555 0.64405757 0.93606883 4294901760
0.066170998 0.31393576 0.45719233 4294901760
0.91755456 0.8374691 0.7249856 4294901760
0.93535459 0.47786936 0.29460084 4294901760
0.27119511 0.19720706 0.55739003 4294901760
0.714697 0.13820194 0.19196376 4294901760
0.94309902 0.46191666 0.7700147 4294901760
0.18762 0.87063372 0.29576111 4294901760
0.27349007 0.91150415 0.31580323 4294901760
0.12422117 0.21745166 0.64111799 4294901760
0.25331983 0.94349641 0.93739599 4294901760
0.33134472 0.34509626 0.55654401 4294901760
0.53424501 0.37622315 0.32348621 4294901760
0.37162888 0.58930403 0.62328088 4294901760
0.17802228 0.48409039 0.62129384 4294901760
0.68580282 0.41182819 0.67809886 4294901760
0.25955409 0.60888273 0.46922541 4294901760
0.32597473 0.80973589 0.63148749 4294901760
0.11967555 0.91701841 0.88920164 4294901760
0.78029495 0.49380994 0.68927151 4294901760
0.0046520736 0.1632449 0.39445525 4294901760
0.80645454 0.82042581 0.55358702 4294901760
0.51784933 0.68455625 0.9255091 4294901760
0.87177151 0.134615 0.77622432 4294901760
0.40614429 0.96062791 0.46353975 4294901760
0.16661716 0.28653598 0.059943385 4294901760
0.67507565 0.16408758 0.41199899 4294901760
0.21371557 0.11776455 0.74446589 4294901760
0.96649271 0.34967306 0.052670125 4294901760
0.82719231 0.57792497 0.15496263 4294901760
0.44290408 0.75623679 0.41862541 4294901760
0.15716547 0.93094605 0.11305568 4294901760
0.68145144 0.21578179 0.16353829 4294901760
0.28673679 0.5156886 0.77219391 4294901760
0.0011520277 0.18016611 0.43003675 4294901760
0.33554739 0.17892791 0.21372463 4294901760
0.26271358 0.22888926 0.067131676 4294901760
0.5689019 0.52785993 0.2484643 4294901760
0.31759277 0.76117206 0.80682659 4294901760
0.22185181 0.22677733 0.66970181 4294901760
0.28095746 0.10139481 0.56003135 4294901760
0.61924773 0.072010122 0.59710449 4294901760
0.042604461 0.37390503 0.28414813 4294901760
0.45527786 0.5164597 0.33187512 4294901760
0.56778741 0.11741761 0.45759934 4294901760
0.76076609 0.14661847 0.31406313 4294901760
0.55079639 0.39481696 0.2450376 4294901760
0.23348226 0.68264997 0.023156099 4294901760
0.067424007 0.033186257 0.38368428 4294901760
0.050972316 0.087686248 0.73548162 4294901760
0.48135939 0.14539622 0.33797786 4294901760
0.27239773 0.65736032 0.083260931 4294901760
0.069551513 0.66801602 0.48144209 4294901760
0.67835742 0.6708492 0.86080575 4294901760
0.22317801 0.97525388 0.91339052 4294901760
0.60065794 0.72381109 0.43406326 4294901760
0.93785959 0.23849979 0.73395938 4294901760
0.36970893 0.59279281 0.62693977 4294901760
0.13541973 0.20680055 0.98651445 4294901760
0.79117888 0.58589649 0.77035475 4294901760
0.7094363 0.75547189 0.85037941 4294901760
0.0030457545 0.30906183 0.43832818 4294901760
0.44757828 0.40847537 0.89439106 4294901760
0.49262294 0.72578305 0.70444745 4294901760
0.26013294 0.76774263 0.094802402 4294901760
0.5639928 0.07724572 0.51648444 4294901760
0.82313323 0.62671006 0.42706525 4294901760
0.66647887 0.58178288 0.69818038 4294901760
0.39419493 0.13307151 0.44871128 4294901760
0.95462316 0.77680504 0.39420387 4294901760
0.83771539 0.7227428 0.38167107 4294901760
0.24311136 0.94163048 0.8188616 4294901760
0.52117467 0.24679039 0.25746176 4294901760
0.35805973 0.1711967 0.2734457 4294901760
0.4455474 0.79736388 0.76957124 4294901760
0.67635107 0.34683076 0.84828413 4294901760
0.17858008 0.98548883 0.74825525 4294901760
0.029306397 0.31329727 0.96953481 4294901760
0.12326972 0.62678748 0.23764209 4294901760
0.91171449 0.49281794 0.66469848 4294901760
0.032161549 0.88052899 0.93611902 4294901760
0.557495 0.72179073 0.53308821 4294901760
0.050708812 0.29715478 0.37418225 4294901760
0.25687626 0.69431424 0.13084397 4294901760
0.31769559 0.24157768 0.60877788 4294901760
0.23569489 0.46980014 0.98508435 4294901760
0.62194467 0.10521778 0.25440493 4294901760
0.50966883 0.61719489 0.94077206 4294901760
0.064389683 0.31689954 0.00049613591 4294901760
0.76547867 0.6702643 0.87002659 4294901760
0.98587835 0.67361164 0.30612084 4294901760
0.14229941 0.095071107 0.25340292 4294901760
0.38516602 0.045633372 0.14157674 4294901760
0.37479392 0.024428148 0.048783265 4294901760
0.30036208 0.016223159 0.13436058 4294901760
0.60447735 0.91515261 0.99626803 4294901760
0.95158571 0.80387491 0.60434628 4294901760
0.41109234 0.99295837 0.21234202 4294901760
0.63910353 0.31312799 0.97054499 4294901760
0.7785368 0.05913727 0.48928624 4294901760
0.57710618 0.6430257 0.48605236 4294901760
0.85785675 0.90602392 0.19685838 4294901760
0.31905475 0.27725896 0.70877451 4294901760
0.52222568 0.057435166 0.49183929 4294901760
0.63730019 0.094458573 0.60028434 4294901760
0.074429668 0.70629042 0.67010069 4294901760
0.75382721 0.041948475 0.7236836 4294901760
0.39933512 0.28820434 0.85206455 4294901760
0.35805723 0.42150018 0.42614037 4294901760
0.096707433 0.59506613 0.1435235 4294901760
0.89473248 0.99073005 0.64671582 4294901760
0.75473124 0.81344008 0.32597068 4294901760
0.94116431 0.75848579 0.094849549 4294901760
0.38220856 0.21159035 0.2909714 4294901760
0.65831137 0.97113138 0.38937074 4294901760
0.27480233 0.85535425 0.74759215 4294901760
0.60526156 0.3535758 0.55288225 4294901760
0.045303218 0.84688514 0.086225666 4294901760
0.47059768 0.46102917 0.68547755 4294901760
0.010885844 0.67408109 0.71064144 4294901760
0.633389 0.87116402 0.94359475 4294901760
0.97137994 0.68244278 0.093862042 4294901760
0.72040069 0.90668929 0.69951463 4294901760
0.96013802 0.41755676 0.4510909 4294901760
0.62350261 0.37490508 0.60707593 4294901760
0.074720435 0.14181417 0.020659547 4294901760
0.79413486 0.42238742 0.57141358 4294901760
0.1500129 0.84298497 0.92925984 4294901760
0.31083798 0.20646589 0.48333687 4294901760
0.24147542 0.68344641 0.96341372 4294901760
0.59933233 0.75036216 0.18595986 4294901760
0.60369068 0.90418923 0.87335014 4294901760
0.2754136 0.35092756 0.49502069 4294901760
0.82538545 0.022435021 0.7464022 4294901760
0.069603868 0.67378247 0.56905437 4294901760
0.24432552 0.92038208 0.26320389 4294901760
0.53177804 0.95874679 0.73756671 4294901760
0.89363283 0.41468608 0.55724567 4294901760
0.022024741 0.44863066 0.4478713 4294901760
0.022262581 0.041244287 0.44025797 4294901760
0.038428254 0.40318102 0.54055065 4294901760
0.37047064 0.74322999 0.41029495 4294901760
0.61267358 0.88947916 0.67198938 4294901760
0.48117688 0.51741499 0.0060358196 4294901760
0.71329868 0.79276466 0.35307911 4294901760
0.76271617 0.9470945 0.89786094 4294901760
0.43924522 0.4446229 0.14139706 4294901760
0.17018612 0.58910996 0.809645 4294901760
0.58837366 0.47293469 0.069390938 4294901760
0.89711034 0.59571999 0.70938236 4294901760
0.2963441 0.63156587 0.63085848 4294901760
0.74626279 0.68289 0.21296869 4294901760
0.27919346 0.83663327 0.022111932 4294901760
0.73901105 0.53091741 0.43070412 4294901760
0.59450221 0.13062547 0.41722527 4294901760
0.75614244 0.74613762 0.56334639 4294901760
0.091672085 0.34575331 0.53487229 4294901760
0.8789801 0.98417085 0.70230484 4294901760
0.58511597 0.64345402 0.9501763 4294901760
0.113267 0.097810537 0.86232167 4294901760
0.65656078 0.3070493 0.13596302 4294901760
0.56289518 0.79636854 0.23925886 4294901760
0.53941053 0.8846699 0.45115879 4294901760
0.28582922 0.81351829 0.11962272 4294901760
0.31732208 0.25016898 0.49655867 4294901760
0.011508586 0.98612142 0.7519536 4294901760
0.16943423 0.31925598 0.65465099 4294901760
0.90798873 0.17676149 0.8188768 4294901760
0.49414724 0.075845085 0.95977372 4294901760
0.55675709 0.70853037 0.12053715 4294901760
0.45177203 0.26437119 0.52271742 4294901760
0.17988718 0.53309602 0.76612687 4294901760
0.89131147 0.23539549 0.070026115 4294901760
0.41602322 0.57143468 0.37700823 4294901760
0.84784508 0.63500053 0.24212377 4294901760
0.29239878 0.12019143 0.70916933 4294901760
0.54526711 0.2025114 0.87796897 4294901760
0.6054799 0.64265394 0.33617195 4294901760
0.36014172 0.94858456 0.27923414 4294901760
0.49099785 0.75854892 0.29810101 4294901760
0.26378888 0.99912286 0.42770556 4294901760
0.095340252 0.55549747 0.98922533 4294901760
0.32399026 0.90529817 0.8793776 4294901760
0.37263846 0.60202283 0.92819268 4294901760
0.58534038 0.48229951 0.38576379 4294901760
0.32195893 0.62830848 0.83098084 4294901760
0.68791473 0.34544051 0.45992523 4294901760
0.8654719 0.41824254 0.55777466 4294901760
0.50478739 0.73458725 0.68114942 4294901760
0.60768276 0.3365933 0.064000599 4294901760
0.36109626 0.28091791 0.83783275 4294901760
0.40190953 0.97484463 0.21709751 4294901760
0.32970259 0.50992584 0.98944587 4294901760
0.86914712 0.01297903 0.38180637 4294901760
0.80144954 0.34327787 0.066491053 4294901760
0.32252905 0.67927647 0.1825722 4294901760
0.48840362 0.20785591 0.33741221 4294901760
0.40474665 0.78898728 0.6662966 4294901760
0.95551682 0.77429581 0.66248333 4294901760
0.84025961 0.87654692 0.69855541 4294901760
0.90400463 0.13709505 0.69538969 4294901760
0.022053087 0.59057754 0.017199403 4294901760
0.12845376 0.70472592 0.37331519 4294901760
0.82122844 0.09133672 0.51454395 4294901760
0.6102826 0.59997231 0.91351503 4294901760
0.11508757 0.87747949 0.61353338 4294901760
0.21149376 0.053182457 0.70550925 4294901760
0.25417185 0.31118551 0.48164168 4294901760
0.79101545 0.54819363 0.19640483 4294901760
0.46374202 0.2469987 0.099497527 4294901760
0.37205967 0.84852499 0.65652221 4294901760
0.35964262 0.29385456 0.91155303 4294901760
0.23811682 0.87439334 0.41728035 4294901760
0.98424631 0.25040027 0.19307193 4294901760
0.58050668 0.65142471 0.80692494 4294901760
0.52588189 0.020325964 0.87380326 4294901760
0.22607137 0.70241755 0.88933444 4294901760
0.99677396 0.75844038 0.34639949 4294901760
0.86901486 0.43765387 0.35427195 4294901760
0.31200191 0.057737853 0.89360487 4294901760
0.65314609 0.025355622 0.61740357 4294901760
0.76916862 0.37996823 0.59410989 4294901760
0.94291914 0.078577466 0.18720725 4294901760
0.54323184 0.87536865 0.74134177 4294901760
0.49729282 0.37361228 0.62148196 4294901760
0.045590378 0.78446829 0.9147535 4294901760
0.99460179 0.53413492 0.087275714 4294901760
0.41119993 0.065505989 0.50526798 4294901760
0.14905238 0.8331362 0.76320374 4294901760
0.59763145 0.44800162 0.49289736 4294901760
0.20986733 0.9010644 0.58832049 4294901760
0.68306732 0.036354657 0.022513138 4294901760
0.40369701 0.97896379 0.57800436 4294901760
0.20981768 0.25344113 0.45117569 4294901760
0.46989083 0.56066662 0.087746359 4294901760
0.67742682 0.9829964 0.36860847 4294901760
0.046468411 0.86934078 0.79576272 4294901760
0.15913187 0.87279159 0.30814058 4294901760
0.8031013 0.1149026 0.10474905 4294901760
0.70286942 0.20247935 0.027110424 4294901760
0.96136189 0.42135122 0.74593335 4294901760
0.48369065 0.82341796 0.025251031 4294901760
0.83737856 0.96680701 0.78899878 4294901760
0.88548267 0.67947847 0.18993823 4294901760
0.4148286 0.89618546 0.80615228 4294901760
0.010118991 0.6790787 0.61864626 4294901760
0.77152622 0.63562888 0.092431374 4294901760
0.19438818 0.77734655 0.089329183 4294901760
0.093680151 0.90133381 0.4759132 4294901760
0.46560937 0.62894243 0.42566416 4294901760
0.37064981 0.36257741 0.42106661 4294901760
0.24338223 0.4986653 0.66347826 4294901760
0.75465286 0.23772073 0.99882036 4294901760
0.17826359 0.28635722 0.92193997 4294901760
0.44592813 0.75556004 0.038571831 4294901760
0.40816489 0.62358505 0.52654755 4294901760
0.23565048 0.45301932 0.52417588 4294901760
0.1629709 0.82088578 0.61655325 4294901760
0.70565349 0.08965382 0.00086887821 4294901760
0.064563282 0.13838144 0.52063429 4294901760
0.12402368 0.79099697 0.80732375 4294901760
0.016924655 0.19348218 0.22499058 4294901760
0.41684622 0.25295231 0.79716152 4294901760
0.5354206 0.0026770164 0.23738357 4294901760
0.3147783 0.15814555 0.78815043 4294901760
0.3179383 0.98686218 0.19142173 4294901760
0.58789361 0.24806756 0.033035468 4294901760
0.043360315 0.77535486 0.51347893 4294901760
0.16916768 0.16417103 0.99383992 4294901760
0.66156346 0.50086123 0.37710193 4294901760
0.008750286 0.88238281 0.82793951 4294901760
0.19283946 0.73420423 0.69361228 4294901760
0.47937894 0.718373 0.036803238 4294901760
0.85014492 0.47405571 0.22088276 4294901760
0.0068797879 0.66223562 0.95450473 4294901760
0.37923977 0.9124667 0.53617311 4294901760
0.47173104 0.96745044 0.43655044 4294901760
0.50755864 0.86444306 0.40120646 4294901760
0.67486238 0.82577986 0.59180719 4294901760
0.51295644 0.99359041 0.34812298 4294901760
0.12842382 0.61047435 0.25367263 4294901760
0.39137194 0.7720207 0.28760943 4294901760
0.46201038 0.22397868 0.96783274 4294901760
0.40099201 0.55557168 0.87968981 4294901760
0.23080283 0.76712328 0.98955524 4294901760
0.84642851 0.022237761 0.9698301 4294901760
0.70214164 0.943551 0.046565436 4294901760
0.032968692 0.91282028 0.51123667 4294901760
0.47106281 0.10781676 0.51258004 4294901760
0.32247472 0.047339372 0.24578524 4294901760
0.022557978 0.023898592 0.35439318 4294901760
0.065093718 0.65581995 0.72339106 4294901760
0.070214711 0.71356857 0.22417302 4294901760
0.52878612 0.82693106 0.345328 4294901760
0.23982 0.51449466 0.65038592 4294901760
0.7669239 0.66435772 0.74079388 4294901760
0.28062692 0.99542069 0.35884333 4294901760
0.72844195 0.95547491 0.70027798 4294901760
0.84093684 0.67117244 0.29827237 4294901760
0.46573812 0.62424505 0.75444448 4294901760
0.21437886 0.44584444 0.41823101 4294901760
0.93471622 0.01453995 0.31855816 4294901760
0.54117054 0.41094863 0.68780732 4294901760
0.90466815 0.65308356 0.87759811 4294901760
0.89527023 0.36905032 0.77079082 4294901760
0.61629921 0.22968803 0.23820311 4294901760
0.31596392 0.82009321 0.069039181 4294901760
0.56706953 0.40430731 0.68392122 4294901760
0.81097507 0.71694314 0.81826705 4294901760
0.54808521 0.93271536 0.35369933 4294901760
0.15699467 0.097788401 0.67224425 4294901760
0.87123632 0.20600393 0.53897798 4294901760
0.86115575 0.028295916 0.39992031 4294901760
0.031125026 0.1497573 0.22239372 4294901760
0.26456416 0.53582424 0.24402733 4294901760
0.32483935 0.30116048 0.77726841 4294901760
0.1901032 0.13037641 0.26987171 4294901760
0.1802353 0.10802717 0.7998035 4294901760
0.60632068 0.73929256 0.061479662 4294901760
0.90766841 0.85845262 0.42249337 4294901760
0.36186159 0.50215727 0.22826751 4294901760
0.77304268 0.21128905 0.73733956 4294901760
0.1981951 0.65526509 0.81812942 4294901760
0.50776434 0.64395773 0.18143733 4294901760
0.22481516 0.24211051 0.20740782 4294901760
0.6865778 0.79313523 0.54459763 4294901760
0.3536008 0.072825901 0.94440842 4294901760
0.25625646 0.88441688 0.70347881 4294901760
0.52445531 0.52488434 0.028171392 4294901760
0.71112347 0.85200149 0.19367632 4294901760
0.013608213 0.60979337 0.31879115 4294901760
0.71970463 0.37950075 0.19896066 4294901760
0.015817458 0.18102586 0.30990797 4294901760
0.26617002 0.17686829 0.13981035 4294901760
0.78354377 0.17430471 0.9324953 4294901760
0.29385495 0.43813848 0.51811689 4294901760
0.85679507 0.13823771 0.27643248 4294901760
0.48959163 0.66907555 0.11575964 4294901760
0.8290599 0.77417022 0.4705632 4294901760
0.5110724 0.027119195 0.71192557 4294901760
0.081884593 0.77659309 0.33205068 4294901760
0.11942481 0.43029612 0.14738072 4294901760
0.38833913 0.6948052 0.15556948 4294901760
0.70145118 0.010818197 0.40908465 4294901760
0.53163898 0.33975777 0.20300236 4294901760
0.69226319 0.8182444 0.11830669 4294901760
0.70709616 0.47182432 0.86439162 4294901760
0.44555756 0.12786964 0.8125717 4294901760
0.053023614 0.11582439 0.99442035 4294901760
0.56962562 0.31126413 0.20094153 4294901760
0.18319033 0.7133863 0.12526667 4294901760
0.79801422 0.53551835 0.29976758 4294901760
0.07093095 0.67482799 0.7524026 4294901760
0.49943209 0.53449523 0.76347452 4294901760
0.92115688 0.86949527 0.086023673 4294901760
0.30014992 0.81944501 0.6657337 4294901760
0.97919595 0.75468224 0.64163828 4294901760
0.60786062 0.65175509 0.89808601 4294901760
0.7628113 0.22723319 0.28724039 4294901760
0.89419144 0.27588138 0.063536875 4294901760
0.8116166 0.38876003 0.68936163 4294901760
0.44472387 0.18023421 0.1501925 4294901760
0.59434581 0.78942323 0.36874032 4294901760
0.02717342 0.69582373 0.038799811 4294901760
0.90706336 0.4805727 0.2212708 4294901760
0.82887542 0.96873093 0.35953411 4294901760
0.61211187 0.90074682 0.040001817 4294901760
0.69500029 0.30794615 0.58000094 4294901760
0.099859446 0.29336765 0.49777535 4294901760
0.23411241 0.96657687 0.38606924 4294901760
0.99590701 0.057388946 0.47527903 4294901760
0.49678424 0.84456736 0.82666421 4294901760
0.40812966 0.64792579 0.24787383 4294901760
0.96184456 0.88555449 0.97195327 4294901760
0.58897573 0.45513156 0.76469809 4294901760
0.8631162 0.02150671 0.1126197 4294901760
0.98706746 0.92368019 0.65894252 4294901760
0.35354644 0.5120576 0.42277107 4294901760
0.30508775 0.82050604 0.77222985 4294901760
0.904342 0.49300817 0.018809799 4294901760
0.50276077 0.17508128 0.29517967 4294901760
0.84457451 0.61244917 0.71293306 4294901760
0.18034542 0.86716813 0.23982368 4294901760
0.88429648 0.616364 0.82791644 4294901760
0.16874939 0.83927542 0.93731552 4294901760
0.025075201 0.98266989 0.13347912 4294901760
0.1530543 0.96363044 0.84488463 4294901760
0.9311446 0.37224662 0.63129127 4294901760
0.82140732 0.81061542 0.97912192 4294901760
0.30217555 0.69325793 0.042780705 4294901760
0.25046796 0.14500906 0.33742556 4294901760
0.90048754 0.22826511 0.064142466 4294901760
0.54122019 0.78556943 0.63451058 4294901760
0.034426682 0.12398993 0.21044119 4294901760
0.97653145 0.0052086739 0.14900893 4294901760
0.30666938 0.71982938 0.28403106 4294901760
0.16905168 0.76329732 0.11727037 4294901760
0.13023709 0.54889822 0.62998897 4294901760
0.98729026 0.92239958 0.22857961 4294901760
0.98131084 0.47093546 0.64065969 4294901760
0.50064796 0.82375801 0.85209602 4294901760
0.66318357 0.90424824 0.63160127 4294901760
0.35002449 0.41497287 0.93046647 4294901760
0.67477816 0.52134073 0.044297416 4294901760
0.98053855 0.34467193 0.92283738 4294901760
0.73055822 0.085988455 0.46971461 4294901760
0.26006386 0.67270041 0.49174607 4294901760
0.41514394 0.41342601 0.98542619 4294901760
0.019316643 0.38509384 0.88615793 4294901760
0.45424694 0.92698973 0.21140656 4294901760
0.7781496 0.21146621 0.70296168 4294901760
0.89256668 0.75909859 0.64784515 4294901760
0.73672831 0.45682192 0.89096183 4294901760
0.18962623 0.87974942 0.0010555532 4294901760
0.2257065 0.37434947 0.76456249 4294901760
0.12437516 0.46593365 0.95953465 4294901760
0.40065017 0.60669184 0.82802624 4294901760
0.042827502 0.60979807 0.20481652 4294901760
0.42427808 0.027074141 0.45068437 4294901760
0.13263196 0.5881142 0.69382626 4294901760
0.76938146 0.13679753 0.8576808 4294901760
0.66208875 0.14815098 0.97471231 4294901760
0.79960597 0.041030277 0.40316379 4294901760
0.50901175 0.054137457 0.24493149 4294901760
0.46298343 0.050875083 0.14250945 4294901760
0.016979987 0.91254687 0.66091871 4294901760
0.60136813 0.91353917 0.62903321 4294901760
0.3218756 0.77153504 0.61492777 4294901760
0.59628671 0.79709798 0.35635048 4294901760
0.34747133 0.59527332 0.92492324 4294901760
0.12002543 0.28415611 0.96871293 4294901760
0.72303891 0.10798704 0.46426636 4294901760
0.49823904 0.94763571 0.5607329 4294901760
0.0065289214 0.8809638 0.18637253 4294901760
0.25391877 0.87535453 0.59004354 4294901760
0.30458647 0.12197448 0.47828931 4294901760
0.28336057 0.2149079 0.84892219 4294901760
0.86487454 0.89114708 0.063249789 4294901760
0.27730879 0.94211733 0.098438755 4294901760
0.61707181 0.9735626 0.76346487 4294901760
0.91778266 0.14507546 0.96699071 4294901760
0.29809299 0.77852088 0.66077691 4294901760
0.89521158 0.92463821 0.81426424 4294901760
0.08631742 0.19999458 0.81903672 4294901760
0.85320771 0.96659285 0.89977956 4294901760
0.011158478 0.31359079 0.85722834 4294901760
0.87538207 0.47295523 0.70827776 4294901760
0.89821404 0.6199429 0.28656113 4294901760
0.066244073 0.35163239 0.82685792 4294901760
0.31790408 0.25875744 0.14505669 4294901760
0.96224129 0.05376095 0.72854859 4294901760
0.33667704 0.97263002 0.97142875 4294901760
0.29195771 0.24116082 0.48764288 4294901760
0.87243783 0.20028019 0.30062333 4294901760
0.4340376 0.97565186 0.59038943 4294901760
0.94287294 0.57488644 0.62350988 4294901760
0.38550901 0.089783348 0.77024722 4294901760
0.99966156 0.14470311 0.40493453 4294901760
0.54131603 0.30253309 0.37679276 4294901760
0.82058734 0.50814348 0.92796338 4294901760
0.77304959 0.99807495 0.11321872 4294901760
0.1237106 0.40355363 0.53245747 4294901760
0.44924179 0.64030302 0.58607787 4294901760
0.51285237 0.23139828 0.044917922 4294901760
0.10464029 0.59756511 0.57886565 4294901760
0.055685673 0.025058944 0.73528928 4294901760
0.63116062 0.28916556 0.25472936 4294901760
0.20777154 0.51779526 0.13154775 4294901760
0.61467689 0.68125314 0.16299896 4294901760
0.73424208 0.70154393 0.69613147 4294901760
0.5120222 0.87956178 0.32720327 4294901760
0.7728042 0.29355761 0.48992464 4294901760
0.33129653 0.6338672 0.44567433 4294901760
0.18295594 0.83207709 0.58854175 4294901760
0.15745334 0.84982145 0.940799 4294901760
0.085052311 0.37894103 0.60081911 4294901760
0.18200247 0.031241514 0.82106006 4294901760
0.39000064 0.41487506 0.53012717 4294901760
0.78292608 0.72893167 0.95367694 4294901760
0.77994949 0.096116073 0.78307194 4294901760
0.28112429 0.14337721 0.32081348 4294901760
0.70294088 0.42349792 0.8494736 4294901760
0.84089559 0.64219284 0.49590981 4294901760
0.76454592 0.80331117 0.33449048 4294901760
0.53864264 0.64280903 3.2993383e-05 4294901760
0.09306968 0.7736029 0.73998415 4294901760
0.58966553 0.7067818 0.37020397 4294901760
0.84408545 0.96959835 0.78812116 4294901760
0.65172231 0.70712382 0.41112185 4294901760
0.83609819 0.53541619 0.85173935 4294901760
0.18530957 0.50509524 0.33308896 4294901760
0.97974539 0.20574342 0.068397932 4294901760
0.81528139 0.24990055 0.069473222 4294901760
0.5607478 0.36579126 0.18214832 4294901760
0.15742929 0.90327936 0.81693757 4294901760
0.45808417 0.41364411 0.16564719 4294901760
0.20934875 0.26694244 0.756809 4294901760
0.4342384 0.19616443 0.028985869 4294901760
0.75677037 0.25633746 0.31805933 4294901760
0.88295203 0.099314049 0.64492804 4294901760
