# .PCD v0.7 - Point Cloud Data file format
VERSION 0.7
FIELDS x y z rgb
SIZE 4 4 4 4
TYPE F F F U
COUNT 1 1 1 1
WIDTH 1087
HEIGHT 1
VIEWPOINT 0 0 0 1 0 0 0
POINTS 1087
DATA ascii
0.20061587 0.38530207 0.96464622 4294901760
0.28693452 0.62114888 0.78454232 4294901760
0.36533251 0.9013176 0.34122887 4294901760
0.45564011 0.68716663 0.3938351 4294901760
0.11699186 0.4238286 0.48412952 4294901760
0.33845729 0.29992032 0.4291445 4294901760
0.96419394 0.3629587 0.76714993 4294901760
0.15803158 0.92858428 0.5609479 4294901760
0.13184224 0.57784027 0.66353703 4294901760
0.21295494 0.69171882 0.40243152 4294901760
0.96716255 0.03418012 0.022397013 4294901760
0.30288616 0.75511098 0.75558436 4294901760
0.77449208 0.35135496 0.10112147 4294901760
0.17948155 0.32371727 0.15723087 4294901760
0.25506428 0.94223809 0.52499515 4294901760
0.97207344 0.78678894 0.52322191 4294901760
0.68070674 0.016197251 0.39293331 4294901760
0.85313863 0.92679089 0.52651417 4294901760
0.65077257 0.61539054 0.25386423 4294901760
0.87830079 0.54795861 0.22237225 4294901760
0.87513393 0.57931542 0.90233809 4294901760
0.72260946 0.74963987 0.19546473 4294901760
0.84320951 0.47328779 0.90891016 4294901760
0.56147087 0.036106333 0.6936782 4294901760
0.71142405 0.74432242 0.83985335 4294901760
0.62324518 0.64462888 0.13296561 4294901760
0.81757867 0.97533274 0.027669948 4294901760
0.58439833 0.5036006 0.076622069 4294901760
0.90543425 0.66698629 0.051309582 4294901760
0.86683851 0.73460817 0.33227387 4294901760
0.1296598 0.43848613 0.24670427 4294901760
0.54577172 0.15417118 0.039864302 4294901760
0.14346576 0.58488715 0.44992647 4294901760
0.49545002 0.68604773 0.20939411 4294901760
0.62617397 0.54181278 0.54617262 4294901760
0.36162019 0.24063705 0.70563787 4294901760
0.61335182 0.49589655 0.36035711 4294901760
0.26234877 0.64956033 0.14932671 4294901760
0.37802932 0.63571393 0.06569171 4294901760
0.7237947 0.60185504 0.74100494 4294901760
0.46018884 0.46671709 0.38047102 4294901760
0.2452317 0.84552354 0.23102452 4294901760
0.45624438 0.033294421 0.43713337 4294901760
0.98360854 0.0063647712 0.76923519 4294901760
0.79409057 0.94353664 0.32881591 4294901760
0.36227587 0.32640901 0.27542627 4294901760
0.31549489 0.82011545 0.40985179 4294901760
0.80981475 0.82235128 0.75155258 4294901760
0.87552524 0.040909339 0.662516 4294901760
0.022912068 0.95471334 0.55704868 4294901760
0.68613446 0.60759568 0.32082331 4294901760
0.49722129 0.72804928 0.90740305 4294901760
0.045429099 0.66264921 0.81356138 4294901760
0.19357084 0.028334362 0.98674625 4294901760
0.94551611 0.51258689 0.016489077 4294901760
0.15411988 0.3586556 0.64174736 4294901760
0.4228358 0.99472529 0.38650596 4294901760
0.40691781 0.54336911 0.056815267 4294901760
0.23506515 0.15720096 0.053249277 4294901760
0.55676627 0.35653204 0.33275285 4294901760
0.071086928 0.78706789 0.87277669 4294901760
0.064744174 0.026328456 0.4182069 4294901760
0.42049029 0.45795926 0.9420473 4294901760
0.3823311 0.5926435 0.99923754 4294901760
0.84963661 0.62834275 0.74630249 4294901760
0.94483924 0.087116383 0.76730031 4294901760
0.76906645 0.13296807 0.67487907 4294901760
0.042556729 0.84443653 0.79821187 4294901760
0.50276572 0.090870075 0.64077455 4294901760
0.70012593 0.81320506 0.0010872291 4294901760
0.95870948 0.98708498 0.74878162 4294901760
0.25618953 0.49857876 0.082068294 4294901760
0.44998965 0.21883838 0.86559659 4294901760
0.68325591 0.62972677 0.68578392 4294901760
0.26554877 0.65321511 0.031793769 4294901760
0.74825013 0.49168986 0.93675864 4294901760
0.73729289 0.12567103 0.042541903 4294901760
0.79468423 0.59511846 0.29301259 4294901760
0.66746098 0.75181293 0.22968979 4294901760
0.5173586 0.62277496 0.68640387 4294901760
0.42026415 0.87319297 0.31245157 4294901760
0.56482214 0.17043065 0.22721966 4294901760
0.18211414 0.6164068 0.1987581 4294901760
0.83197784 0.10155156 0.25794759 4294901760
0.44082171 0.762779 0.31796986 4294901760
0.40373468 0.77330357 0.19979349 4294901760
0.58929491 0.14554095 0.45915988 4294901760
0.032850523 0.26695842 0.92522401 4294901760
0.52096105 0.70746946 0.73444855 4294901760
0.75177985 0.95586783 0.46183664 4294901760
0.42653641 0.72139472 0.51905721 4294901760
0.34931839 0.23806775 0.6571874 4294901760
0.12650976 0.48237759 0.70956516 4294901760
0.56601202 0.7114017 0.45741352 4294901760
0.66809249 0.90708357 0.98838991 4294901760
0.52303231 0.81991744 0.22473177 4294901760
0.55708885 0.82524508 0.41637245 4294901760
0.3500571 0.47033408 0.3928951 4294901760
0.34327525 0.52872801 0.99499917 4294901760
0.32739824 0.40961808 0.00051100494 4294901760
0.59864151 0.70509887 0.93587923 4294901760
0.26870123 0.68149698 0.038481142 4294901760
0.83909768 0.55875546 0.11254615 4294901760
0.11127332 0.50693506 0.54482055 4294901760
0.24470943 0.63998246 0.10207225 4294901760
0.039493419 0.39756542 0.0085889846 4294901760
0.024392799 0.82285202 0.45570022 4294901760
0.5047515 0.41435999 0.79322743 4294901760
0.65042043 0.061419088 0.73508316 4294901760
0.31106895 0.031767655 0.43930802 4294901760
0.022673456 0.27502254 0.96224737 4294901760
0.77826899 0.55799007 0.93963665 4294901760
0.40681159 0.49225032 0.17670397 4294901760
0.26661816 0.21626557 0.76727474 4294901760
0.2908597 0.97570115 0.27799463 4294901760
0.90144324 0.27154794 0.10535483 4294901760
0.97805142 0.20135777 0.084684387 4294901760
0.29455411 0.44469982 0.78726238 4294901760
0.13941345 0.72872066 0.14255781 4294901760
0.41592503 0.51233596 0.29189631 4294901760
0.21543719 0.33129114 0.63796043 4294901760
0.59519684 0.28302652 0.71775562 4294901760
0.65184581 0.79178035 0.3899143 4294901760
0.084663734 0.14246032 0.13674036 4294901760
0.93788064 0.64717829 0.39943585 4294901760
0.85890448 0.82943779 0.044760741 4294901760
0.38103491 0.4233073 0.88382488 4294901760
0.82861519 0.30441707 0.55021781 4294901760
0.30798477 0.17094739 0.55599886 4294901760
0.13240819 0.68497896 0.17276667 4294901760
0.80127317 0.0070951423 0.086712472 4294901760
0.49523836 0.379381 0.17190428 4294901760
0.24964257 0.43330649 0.83833164 4294901760
0.18661347 0.26262665 0.27156237 4294901760
0.18350942 0.87108392 0.17667425 4294901760
0.37839675 0.85379511 0.60438085 4294901760
0.57462955 0.13246872 0.45040092 4294901760
0.58383888 0.010913348 0.58663648 4294901760
0.29307362 0.29094747 0.25092873 4294901760
0.49459207 0.93229467 0.62128723 4294901760
0.39808762 0.95451784 0.021542573 4294901760
0.09423846 0.36774772 0.68712121 4294901760
0.86275852 0.29240146 0.99280912 4294901760
0.88067663 0.79280567 0.64636528 4294901760
0.64707732 0.90415335 0.48322713 4294901760
0.61964369 0.91509467 0.55946028 4294901760
0.81031233 0.069152497 0.028433979 4294901760
0.3096576 0.45267522 0.13503341 4294901760
0.041916844 0.46596965 0.34218881 4294901760
0.54315603 0.22264734 0.88467604 4294901760
0.081552923 0.79482746 0.47656599 4294901760
0.25414038 0.5180136 0.76112175 4294901760
0.38352275 0.58254218 0.22126129 4294901760
0.64453334 0.69095951 0.70820057 4294901760
0.87735814 0.14436091 0.80440879 4294901760
0.13828573 0.87700021 0.58631647 4294901760
0.26678732 0.097308956 0.23261251 4294901760
0.02332164 0.50223935 0.48319525 4294901760
0.23684563 0.025846945 0.40929487 4294901760
0.65944099 0.53610694 0.41411781 4294901760
0.50433528 0.96889663 0.80128008 4294901760
0.81600416 0.38139161 0.13588032 4294901760
0.50228107 0.35591966 0.2102513 4294901760
0.44144791 0.28347874 0.74922413 4294901760
0.68358743 0.087300807 0.75306475 4294901760
0.43156341 0.052974731 0.85159326 4294901760
0.88763058 0.55271596 0.39604828 4294901760
0.93902868 0.9401136 0.58131158 4294901760
0.37247664 0.67496449 0.6608907 4294901760
0.46911153 0.57082832 0.68535441 4294901760
0.074513189 0.17699181 0.31908652 4294901760
0.27570906 0.10799917 0.25694513 4294901760
0.21421136 0.99811298 0.020884434 4294901760
0.034143761 0.11437918 0.78120565 4294901760
0.70295739 0.018383874 0.46594465 4294901760
0.93990195 0.72202379 0.064682595 4294901760
0.040803865 0.8227011 0.50346231 4294901760
0.30630502 0.27725077 0.82569706 4294901760
0.026509354 0.022377344 0.97655088 4294901760
0.78414035 0.58290708 0.41936946 4294901760
0.43912068 0.66651887 0.8724969 4294901760
0.7211175 0.55276185 0.58260375 4294901760
0.51987582 0.64083582 0.98903579 4294901760
0.062737159 0.054589629 0.3526763 4294901760
0.96722084 0.71776134 0.78610855 4294901760
0.37794179 0.72136527 0.34124982 4294901760
0.30903617 0.72632366 0.97507221 4294901760
0.54047507 0.090607107 0.64263904 4294901760
0.39025715 0.51877367 0.72203207 4294901760
0.68415892 0.11843409 0.75119209 4294901760
0.72870272 0.94260603 0.28687873 4294901760
0.85603356 0.76017761 0.071241125 4294901760
0.41286394 0.37814882 0.79285389 4294901760
0.60783708 0.43353179 0.29171088 4294901760
0.86659926 0.19921899 0.76832688 4294901760
0.21889775 0.60940003 0.46303356 4294901760
0.93634862 0.73556358 0.19127561 4294901760
0.51185453 0.8917532 0.4286823 4294901760
0.31427151 0.98156583 0.97807723 4294901760
0.84081668 0.49175763 0.15262206 4294901760
0.9660024 0.29092684 0.82444632 4294901760
0.96308428 0.22056104 0.17973211 4294901760
0.45061287 0.8965739 0.3218345 4294901760
0.081638426 0.51949674 0.49484476 4294901760
0.66519499 0.42095643 0.41641113 4294901760
0.026584383 0.29228932 0.68445903 4294901760
0.38942453 0.6649515 0.7724793 4294901760
0.21896736 0.61887974 0.43781108 4294901760
0.033431068 0.81092745 0.62004888 4294901760
0.4419339 0.13837853 0.24164173 4294901760
0.27328888 0.96209598 0.69373506 4294901760
0.56891036 0.14795549 0.0090892799 4294901760
0.80639648 0.50492299 0.74568212 4294901760
0.84003168 0.28817475 0.59499365 4294901760
0.56103826 0.073637664 0.55750769 4294901760
0.49273342 0.34571272 0.31217492 4294901760
0.70658886 0.67481637 0.3180916 4294901760
0.41030714 0.29986662 0.59768045 4294901760
0.014330928 0.93290019 0.71103913 4294901760
0.73624831 0.88628906 0.72019124 4294901760
0.8183471 0.27875066 0.8789705 4294901760
0.39767301 0.57481432 0.38372695 4294901760
0.92118275 0.2516413 0.85545629 4294901760
0.33400857 0.42014936 0.94681102 4294901760
0.61112744 0.38786203 0.76438719 4294901760
0.15404414 0.08245939 0.3564837 4294901760
0.43477914 0.51686162 0.51892757 4294901760
0.71541393 0.39063737 0.78533208 4294901760
0.0539551 0.89821988 0.61107868 4294901760
0.77941847 0.12922436 0.70561492 4294901760
0.20002149 0.89922166 0.41524607 4294901760
0.14494272 0.47449261 0.5438379 4294901760
0.5599103 0.73480624 0.25118548 4294901760
0.053624019 0.63778239 0.32326198 4294901760
0.91809332 0.64320922 0.6243006 4294901760
0.84482527 0.36444366 0.46942493 4294901760
0.18757898 0.99221849 0.53947043 4294901760
0.1292204 0.34710795 0.55422771 4294901760
0.83471614 0.92938322 0.31123665 4294901760
0.040984817 0.067937016 0.38755023 4294901760
0.97298884 0.81119567 0.72592658 4294901760
0.7036038 0.33075005 0.3147774 4294901760
0.16836391 0.97344196 0.5307923 4294901760
0.48429644 0.73769408 0.53583115 4294901760
0.74907726 0.8149308 0.5504474 4294901760
0.053239904 0.35125428 0.27452946 4294901760
0.17211495 0.38555017 0.2634981 4294901760
0.54194164 0.84109139 0.34293884 4294901760
0.93802637 0.93567103 0.53443289 4294901760
0.7433669 0.82582617 0.092615873 4294901760
0.95822185 0.6818319 0.34459594 4294901760
0.20266438 0.21032374 0.41144821 4294901760
0.92733729 0.044439323 0.20943992 4294901760
0.95079279 0.24380268 0.042141996 4294901760
0.88706422 0.95270044 0.80820382 4294901760
0.1561974 0.045233119 0.45487684 4294901760
0.34564179 0.15637644 0.60019183 4294901760
0.18374385 0.59496659 0.89231592 4294901760
0.65277171 0.17277659 0.30802223 4294901760
0.42247298 0.91582829 0.14255534 4294901760
0.1415742 0.15222263 0.4775613 4294901760
0.83211297 0.28682238 0.10535356 4294901760
0.77888453 0.11772721 0.77500713 4294901760
0.86941355 0.15621631 0.30644536 4294901760
0.27654061 0.91728127 0.59825045 4294901760
0.43593037 0.055404872 0.80453771 4294901760
0.91783333 0.8298052 0.76099551 4294901760
0.41199848 0.9709118 0.48010415 4294901760
0.38300771 0.75293636 0.90662527 4294901760
0.083146729 0.21574475 0.81417251 4294901760
0.86859381 0.73109585 0.23097415 4294901760
0.064379983 0.52628744 0.17431594 4294901760
0.056213237 0.60514408 0.31682074 4294901760
0.73175049 0.24726665 0.33001858 4294901760
0.12726361 0.22314526 0.78354526 4294901760
0.54254729 0.92360348 0.9095872 4294901760
0.57821536 0.62262499 0.14127377 4294901760
0.47256303 0.24874893 0.65031749 4294901760
0.15721595 0.16822365 0.96807444 4294901760
0.32747599 0.204924 0.20262103 4294901760
0.5364182 0.40756273 0.30767921 4294901760
0.45393193 0.7101469 0.2334753 4294901760
0.92994839 0.83043683 0.14116208 4294901760
0.3963275 0.91446966 0.47491229 4294901760
0.66759586 0.41971582 0.86736447 4294901760
0.67870259 0.89611739 0.11357751 4294901760
0.23189174 0.92087108 0.66891134 4294901760
0.054009575 0.68677205 0.61116153 4294901760
0.027012104 0.64176178 0.69233066 4294901760
0.30755877 0.88910806 0.13409281 4294901760
0.87036532 0.3928338 0.7801162 4294901760
0.051195275 0.80801028 0.35981673 4294901760
0.17162026 0.90450525 0.35645223 4294901760
0.21886632 0.85197788 0.54882336 4294901760
0.37031752 0.49534857 0.9205541 4294901760
0.42308527 0.80246305 0.23687986 4294901760
0.30274013 0.89949203 0.0014373889 4294901760
0.5369395 0.78258556 0.80631763 4294901760
0.62117028 0.19677548 0.28858036 4294901760
0.68531406 0.085865691 0.80922258 4294901760
0.86838865 0.75870478 0.26673171 4294901760
0.12947221 0.66729724 0.76831222 4294901760
0.13476071 0.64740795 0.84378135 4294901760
0.62301832 0.80745775 0.31964058 4294901760
0.81865317 0.6182676 0.90858394 4294901760
0.38816005 0.73056823 0.12317412 4294901760
0.4592678 0.95367354 0.38995478 4294901760
0.48915014 0.18001546 0.6549474 4294901760
0.87544274 0.97260785 0.81929964 4294901760
0.58314151 0.56840545 0.55931216 4294901760
0.50610048 0.91973227 0.93495196 4294901760
0.76736271 0.72222048 0.97064579 4294901760
0.97013724 0.88861006 0.098431259 4294901760
0.45818114 0.99962831 0.4782595 4294901760
0.65618128 0.41429853 0.57189512 4294901760
0.89051622 0.51836973 0.42983085 4294901760
0.0005806199 0.64418602 0.051332533 4294901760
0.86269057 0.64805454 0.42757982 4294901760
0.34664845 0.1462256 0.66250062 4294901760
0.91809899 0.90854079 0.23832481 4294901760
0.57715082 0.40937027 0.23594612 4294901760
0.21159002 0.79960215 0.12000638 4294901760
0.9607138 0.31664097 0.97978866 4294901760
0.94662613 0.10074973 0.50343996 4294901760
0.47737592 0.11657475 0.6694178 4294901760
0.24096337 0.65257162 0.23945642 4294901760
0.021705411 0.19533969 0.72169751 4294901760
0.82187539 0.98801959 0.93934941 4294901760
0.87798506 0.2212172 0.15128122 4294901760
0.77415174 0.92001998 0.63427001 4294901760
0.84033734 0.3610076 0.79394543 4294901760
0.71063447 0.75570834 0.9052487 4294901760
0.1302141 0.18341334 0.72244859 4294901760
0.036230739 0.3322058 0.24266312 4294901760
0.52732414 0.043931194 0.70857698 4294901760
0.41612762 0.62619203 0.18126203 4294901760
0.20727207 0.42189485 0.35036376 4294901760
0.237152 0.69648618 0.52023542 4294901760
0.68343854 0.27445129 0.94877803 4294901760
0.70778668 0.067714095 0.47480199 4294901760
0.27556875 0.29732728 0.66803151 4294901760
0.11691027 0.10058622 0.61335027 4294901760
0.70154756 0.58332193 0.10646158 4294901760
0.59808123 0.026143439 0.98114818 4294901760
0.32132807 0.50282472 0.20848191 4294901760
0.41613412 0.8778106 0.94408637 4294901760
0.86213058 0.32748353 0.54968309 4294901760
0.46125105 0.43616083 0.68747813 4294901760
0.28431222 0.94458872 0.82400972 4294901760
0.17383781 0.33678302 0.079423428 4294901760
0.031759299 0.29156512 0.80720001 4294901760
0.30118987 0.97318035 0.62993801 4294901760
0.58685213 0.20620772 0.97569281 4294901760
0.18228352 0.56970441 0.73793781 4294901760
0.69093585 0.31366256 0.39937732 4294901760
0.76947826 0.60427141 0.77109206 4294901760
0.044264503 0.84259117 0.58916599 4294901760
0.0045463056 0.45060337 0.89814162 4294901760
0.8857466 0.6865204 0.050355274 4294901760
0.98248547 0.33566245 0.41970164 4294901760
0.94365776 0.69132096 0.03685414 4294901760
0.30080351 0.66516334 0.61334789 4294901760
0.73373443 0.73302883 0.19244561 4294901760
0.38335559 0.9037143 0.87507498 4294901760
0.70597547 0.97667837 0.25057995 4294901760
0.94372076 0.30297446 0.93632627 4294901760
0.12168712 0.29117799 0.57889998 4294901760
0.13109168 0.85178483 0.66251534 4294901760
0.9881233 0.86269927 0.69663346 4294901760
0.82714146 0.40582865 0.43101066 4294901760
0.12295887 0.27185574 0.35345641 4294901760
0.23519386 0.76990664 0.0098310271 4294901760
0.56319594 0.75408649 0.72991705 4294901760
0.84313959 0.2407131 0.98083127 4294901760
0.67386913 0.90580249 0.98502547 4294901760
0.50179923 0.38075846 0.389274 4294901760
0.8602671 0.681988 0.89599282 4294901760
0.22294243 0.26388028 0.53242517 4294901760
0.9528814 0.18503326 0.49585024 4294901760
0.91497165 0.32076201 0.87802666 4294901760
0.96967113 0.47263101 0.5127508 4294901760
0.75063562 0.1577462 0.50700456 4294901760
0.64612502 0.49176162 0.58467305 4294901760
0.28552133 0.71190673 0.67455739 4294901760
0.92644411 0.46147364 0.26981834 4294901760
0.18625116 0.088885188 0.45452848 4294901760
0.016098939 0.27073884 0.54972386 4294901760
0.48723063 0.43922073 0.62145674 4294901760
0.66267216 0.053897087 0.15715818 4294901760
0.067800298 0.53816462 0.9929409 4294901760
0.26344016 0.77581024 0.057340398 4294901760
0.26333216 0.017731387 0.46232289 4294901760
0.033309672 0.37892768 0.60865366 4294901760
0.01059495 0.79535389 0.90440327 4294901760
0.72992814 0.29236844 0.76031685 4294901760
0.97190231 0.97338092 0.34249458 4294901760
0.050136957 0.022323394 0.67444015 4294901760
0.94234622 0.91423631 0.93808722 4294901760
0.66668409 0.38533154 0.7829088 4294901760
0.51921374 0.080047436 0.10616389 4294901760
0.92808259 0.3694644 0.26066628 4294901760
0.5955168 0.33703586 0.89875257 4294901760
0.85927045 0.23036063 0.43395779 4294901760
0.72899693 0.38960585 0.40270066 4294901760
0.20872408 0.52226329 0.59120786 4294901760
0.43138662 0.24991031 0.55142218 4294901760
0.51863676 0.10498449 0.36657622 4294901760
0.31018785 0.028580531 0.16267926 4294901760
0.6518268 0.3132062 0.70899284 4294901760
0.097982593 0.21443476 0.37433526 4294901760
0.13253659 0.59528446 0.97739857 4294901760
0.81187654 0.076553985 0.98176175 4294901760
0.094808795 0.71995848 0.63099688 4294901760
0.93041742 0.0077159745 0.063708 4294901760
0.41541067 0.95637095 0.28896207 4294901760
0.32834956 0.4153116 0.25734264 4294901760
0.68912321 0.42696401 0.26955903 4294901760
0.43105665 0.69753492 0.71220535 4294901760
0.71377337 0.68388098 0.99735099 4294901760
0.97937059 0.22417323 0.20475669 4294901760
0.95754147 0.73372716 0.071542531 4294901760
0.48401248 0.40324369 0.1139297 4294901760
0.26809904 0.082355402 0.27154711 4294901760
0.83368915 0.42261776 0.95075649 4294901760
0.12337013 0.69856542 0.95742613 4294901760
0.72870827 0.74066412 0.072789222 4294901760
0.36476997 0.58009708 0.6735841 4294901760
0.62914288 0.97875375 0.048069037 4294901760
0.58768982 0.8387751 0.92583287 4294901760
0.12407591 0.59246784 0.35218441 4294901760
0.42612037 0.398891 0.65795583 4294901760
0.041601378 0.56497657 0.12127163 4294901760
0.22400256 0.035854157 0.82855034 4294901760
0.72787124 0.51412767 0.83218944 4294901760
0.13434646 0.31272575 0.092138216 4294901760
0.1720548 0.40463459 0.43779024 4294901760
0.50037009 0.78919542 0.22768456 4294901760
0.39139023 0.39236504 0.68908083 4294901760
0.39679548 0.33482397 0.2652697 4294901760
0.1912981 0.88030905 0.79316807 4294901760
0.087892726 0.38390416 0.50286812 4294901760
0.71389127 0.29800415 0.89574063 4294901760
0.37430805 0.62341768 0.2570405 4294901760
0.46933496 0.37668762 0.36029801 4294901760
0.25989589 0.34564105 0.48696402 4294901760
0.19557387 0.81321979 0.29577595 4294901760
0.9070642 0.31143513 0.037824336 4294901760
0.10253426 0.70311719 0.6553489 4294901760
0.1280183 0.10732786 0.72294992 4294901760
0.81498587 0.78664368 0.26631397 4294901760
0.11360893 0.87898189 0.20063765 4294901760
0.24264713 0.72108364 0.10414147 4294901760
0.30137795 0.33462685 0.55498451 4294901760
0.36549914 0.018217809 0.50787008 4294901760
0.037051205 0.9944098 0.73383355 4294901760
0.47473839 0.46765044 0.61977458 4294901760
0.97397441 0.57376653 0.30397612 4294901760
0.63413113 0.11970168 0.64569736 4294901760
0.51074028 0.74092752 0.012769196 4294901760
0.3956311 0.62397557 0.78934145 4294901760
0.27292532 0.87330365 0.73340088 4294901760
0.40946507 0.41055548 0.4811008 4294901760
0.35546494 0.50263292 0.24721535 4294901760
0.34340689 0.31307882 0.079684801 4294901760
0.28406405 0.1382108 0.54639703 4294901760
0.95742333 0.64622557 0.74089503 4294901760
0.40785694 0.41232926 0.6935007 4294901760
0.092761308 0.35242712 0.28950408 4294901760
0.17518924 0.83759171 0.014544813 4294901760
0.71557742 0.9038527 0.49509376 4294901760
0.4533709 0.81635731 0.7413137 4294901760
0.65757126 0.43436292 0.033755925 4294901760
0.281396 0.38539273 0.37293798 4294901760
0.59225106 0.19575848 0.074431665 4294901760
0.94749117 0.51028901 0.47953346 4294901760
0.45621523 0.4370977 0.81981534 4294901760
0.53657699 0.10091441 0.5728361 4294901760
0.98506963 0.069073372 0.76590478 4294901760
0.93296689 0.23040499 0.43011433 4294901760
0.6694209 0.058299921 0.98600668 4294901760
0.95620757 0.65067202 0.98863953 4294901760
0.25698543 0.07798671 0.70773906 4294901760
0.13229005 0.61662704 0.9766013 4294901760
0.15804662 0.57953238 0.97603357 4294901760
0.096577607 0.73604584 0.56843448 4294901760
0.60344654 0.40013972 0.93817443 4294901760
0.63889575 0.6413154 0.094055749 4294901760
0.65661812 0.61238408 0.65843093 4294901760
0.15009283 0.96782738 0.42671365 4294901760
0.81308717 0.62351483 0.11949671 4294901760
0.2354137 0.96112013 0.91248053 4294901760
0.45097679 0.48159462 0.14575319 4294901760
0.55921358 0.003782806 0.37004212 4294901760
0.061821628 0.32669154 0.036062192 4294901760
0.90548152 0.78605688 0.93171108 4294901760
0.4307462 0.51015699 0.68297762 4294901760
0.72895581 0.47255799 0.60807896 4294901760
0.19217052 0.37493038 0.46349141 4294901760
0.68471879 0.63917631 0.25232974 4294901760
0.024222134 0.4884952 0.052208025 4294901760
0.050670084 0.0017465717 0.35123792 4294901760
0.4178291 0.33355555 0.96624994 4294901760
0.49767652 0.97135848 0.66991419 4294901760
0.52128857 0.41689202 0.14344688 4294901760
0.5491299 0.053311568 0.43748316 4294901760
0.011988531 0.98423642 0.40242091 4294901760
0.31848347 0.27563894 0.77304435 4294901760
0.23924826 0.94580674 0.62364489 4294901760
0.77930295 0.37444577 0.7379849 4294901760
0.092650451 0.67650872 0.05366604 4294901760
0.47528505 0.65014076 0.21949853 4294901760
0.30842677 0.012697085 0.8694101 4294901760
0.69166929 0.44695765 0.57312858 4294901760
0.44379863 0.14052051 0.50590545 4294901760
0.020131564 0.52443135 0.13770528 4294901760
0.21729609 0.59281659 0.34403476 4294901760
0.055029064 0.91451079 0.72003782 4294901760
0.2779071 0.91529387 0.49418655 4294901760
0.17662455 0.39120048 0.80300462 4294901760
0.40191627 0.056109324 0.39791375 4294901760
0.85081452 0.10437799 0.036175821 4294901760
0.5752176 0.2879419 0.011226724 4294901760
0.41549447 0.48643914 0.43514964 4294901760
0.0035902378 0.59957707 0.14394769 4294901760
0.91325945 0.13302329 0.73810399 4294901760
0.73400742 0.55529469 0.40254238 4294901760
0.39216977 0.22814694 0.22013064 4294901760
0.99268848 0.7640478 0.37486503 4294901760
0.37419903 0.031825878 0.7569443 4294901760
0.88159657 0.73484844 0.44779781 4294901760
0.44867805 0.75370181 0.13576581 4294901760
0.086043254 0.76872343 0.15284567 4294901760
0.53849119 0.90983111 0.19088429 4294901760
0.61036605 0.22207223 0.31123668 4294901760
0.88673389 0.90030116 0.11116034 4294901760
0.17158644 0.64221519 0.42079386 4294901760
0.32932842 0.6433838 0.5142014 4294901760
0.51479799 0.8295427 0.15098158 4294901760
0.71927935 0.86841661 0.10850039 4294901760
0.45592868 0.37147585 0.045555431 4294901760
0.61926526 0.84631157 0.17271599 4294901760
0.79173708 0.35462812 0.95259231 4294901760
0.12390423 0.20903133 0.1021863 4294901760
0.57303286 0.29752469 0.088680774 4294901760
0.83760703 0.086782761 0.097225741 4294901760
0.37783396 0.1013553 0.33317378 4294901760
0.45233217 0.40548578 0.58997464 4294901760
0.72718728 0.82417667 0.30239251 4294901760
0.7600612 0.11151624 0.65906739 4294901760
0.47890836 0.83056223 0.46653315 4294901760
0.56029022 0.21769606 0.14393015 4294901760
0.038592383 0.68674237 0.77779901 4294901760
0.41872767 0.70043886 0.027592149 4294901760
0.99153447 0.19882876 0.47104275 4294901760
0.42443979 0.080225125 0.73571402 4294901760
0.19267586 0.07568235 0.6288563 4294901760
0.41647261 0.39394715 0.55744344 4294901760
0.3238135 0.7104038 0.45413983 4294901760
0.26712853 0.831442 0.18944697 4294901760
0.71141255 0.36561075 0.74976665 4294901760
0.40364325 0.80724406 0.42131248 4294901760
0.49044633 0.0023075491 0.16641763 4294901760
0.69919419 0.67305404 0.73569268 4294901760
0.91478533 0.95728278 0.97479361 4294901760
0.20030701 0.063935451 0.62028766 4294901760
0.42113444 0.21262199 0.36908668 4294901760
0.1577418 0.42582723 0.24177043 4294901760
0.66671497 0.077968806 0.23990239 4294901760
0.99664652 0.3136557 0.013019513 4294901760
0.80109888 0.7195909 0.80771196 4294901760
0.090934008 0.23426038 0.71812654 4294901760
0.15979183 0.63386995 0.6327796 4294901760
0.54735482 0.2749728 0.72703212 4294901760
0.82699853 0.27942464 0.61881906 4294901760
0.35525471 0.15105242 0.91972941 4294901760
0.91043806 0.79159349 0.46341997 4294901760
0.04447462 0.02566734 0.26316833 4294901760
0.14807193 0.098666452 0.77336484 4294901760
0.56504023 0.3819595 0.51247334 4294901760
0.83556759 0.91436225 0.626297 4294901760
0.55311626 0.99259681 0.15792781 4294901760
0.73506427 0.55132598 0.85886735 4294901760
0.27196428 0.1054332 0.21483208 4294901760
0.58398396 0.74565572 0.092858225 4294901760
0.82453775 0.70976681 0.99932235 4294901760
0.32469171 0.47120032 0.755481 4294901760
0.71487147 0.32246605 0.88873887 4294901760
0.62713563 0.78953212 0.20439991 4294901760
0.59781802 0.72216016 0.71850973 4294901760
0.36474812 0.47424462 0.24735554 4294901760
0.34901121 0.59553909 0.84268558 4294901760
0.040784467 0.74552351 0.88615251 4294901760
0.45172036 0.88701189 0.8178215 4294901760
0.080586933 0.8433165 0.72346306 4294901760
0.022338793 0.91291589 0.73530477 4294901760
0.20563222 0.27866638 0.98662472 4294901760
0.84303737 0.84670711 0.5980562 4294901760
0.80933952 0.69365251 0.93479377 4294901760
0.93936795 0.90219188 0.90542597 4294901760
0.30327076 0.7598536 0.38872054 4294901760
0.48163658 0.12561886 0.50652003 4294901760
0.13605806 0.69644284 0.47793633 4294901760
0.039602477 0.87077087 0.49542031 4294901760
0.84492552 0.56662095 0.81484789 4294901760
0.87237853 0.62806576 0.1760605 4294901760
0.6817503 0.98714554 0.0048443871 4294901760
0.27958584 0.80947399 0.61026192 4294901760
0.59172362 0.079609588 0.61816931 4294901760
0.98028862 0.30090132 0.34013507 4294901760
0.20211701 0.40726155 0.68743551 4294901760
0.73935205 0.65285826 0.36346424 4294901760
0.8191582 0.82713574 0.89273703 4294901760
0.45802543 0.62998688 0.11339957 4294901760
0.94911748 0.55845618 0.52334034 4294901760
0.67478317 0.19258688 0.97765136 4294901760
0.14646722 0.98683292 0.20424159 4294901760
0.24572657 0.30451754 0.29225898 4294901760
0.8956008 0.21845467 0.5000326 4294901760
0.24364965 0.44508606 0.78729224 4294901760
0.47104877 0.10231159 0.66640449 4294901760
0.7593717 0.81348157 0.072163805 4294901760
0.70656127 0.53361368 0.81030458 4294901760
0.80296898 0.63004011 0.83875912 4294901760
0.83151734 0.045331072 0.8151949 4294901760
0.7890048 0.95290363 0.11750276 4294901760
0.094028354 0.73882145 0.40179133 4294901760
0.6913169 0.34955534 0.28472024 4294901760
0.16778754 0.78929168 0.58977085 4294901760
0.65712583 0.37056902 0.99622846 4294901760
0.76410609 0.43445519 0.86428982 4294901760
0.71020424 0.31839594 0.34887642 4294901760
0.30538529 0.8420428 0.58863181 4294901760
0.84910667 0.16179794 0.88506484 4294901760
0.3620612 0.064193681 0.512398 4294901760
0.43103048 0.54177195 0.29615334 4294901760
0.79293817 0.99087793 0.40541705 4294901760
0.52156854 0.013612675 0.80468082 4294901760
0.94160146 0.49568832 0.92121613 4294901760
0.21610205 0.84268916 0.10978767 4294901760
0.62526572 0.808227 0.83294648 4294901760
0.69017756 0.96096808 0.29456601 4294901760
0.96938956 0.31365141 0.70786983 4294901760
0.82324159 0.69221127 0.13370477 4294901760
0.052226007 0.93912786 0.19868813 4294901760
0.19787274 0.38918498 0.72381485 4294901760
0.069987021 0.41702512 0.55755907 4294901760
0.66808736 0.95535713 0.67331094 4294901760
0.40095443 0.74026775 0.7697655 4294901760
0.29797369 0.30745625 0.55416447 4294901760
0.26812336 0.26640821 0.33678672 4294901760
0.16397747 0.68974304 0.62112373 4294901760
0.32475924 0.64660263 0.18697941 4294901760
0.88833171 0.75705588 0.59835392 4294901760
0.75032884 0.41457856 0.99347281 4294901760
0.75968784 0.70610905 0.08695066 4294901760
0.50750339 0.7883386 0.056853037 4294901760
0.8932277 0.32728395 0.75457722 4294901760
0.031149466 0.75982434 0.75047863 4294901760
0.28232458 0.11776161 0.25446051 4294901760
0.66014969 0.23690319 0.82889473 4294901760
0.21830098 0.75725442 0.69395572 4294901760
0.83335721 0.29457676 0.61697543 4294901760
0.99871397 0.96407932 0.82753718 4294901760
0.69379658 0.036150455 0.52869844 4294901760
0.32132897 0.19755693 0.21594825 4294901760
0.27397773 0.17022915 0.098200813 4294901760
0.45328733 0.23640543 0.63539684 4294901760
0.39196715 0.19850346 0.55991238 4294901760
0.1176281 0.23718697 0.98124951 4294901760
0.71876639 0.58389556 0.98430628 4294901760
0.64322507 0.26184243 0.13895747 4294901760
0.57926005 0.70562923 0.62257934 4294901760
0.14922985 0.34613323 0.54409248 4294901760
0.80416954 0.91835457 0.1374788 4294901760
0.15525232 0.76632047 0.7530461 4294901760
0.11330367 0.19142237 0.72264963 4294901760
0.24903153 0.67294216 0.35107091 4294901760
0.15135033 0.22716184 0.21097496 4294901760
0.62863195 0.26019502 0.44353297 4294901760
0.72663498 0.70029098 0.86397421 4294901760
0.91145456 0.4254978 0.14722516 4294901760
0.43739343 0.94883317 0.45894116 4294901760
0.10239141 0.28529572 0.56503719 4294901760
0.20835498 0.68095273 0.98797131 4294901760
0.57905465 0.059119131 0.97660869 4294901760
0.39748046 0.35721666 0.2742449 4294901760
0.53457445 0.35341471 0.36825734 4294901760
0.37514254 0.81487781 0.23076989 4294901760
0.50964832 0.53782368 0.30319184 4294901760
0.15744443 0.54438943 0.83736533 4294901760
0.95006162 0.91893888 0.34827331 4294901760
0.63250154 0.72341686 0.11675044 4294901760
0.26119813 0.86057115 0.81836611 4294901760
0.12994397 0.54757398 0.86980647 4294901760
0.40845042 0.26402313 0.30826086 4294901760
0.36543685 0.40286049 0.4532004 4294901760
0.56350011 0.22137117 0.17031324 4294901760
0.18547048 0.80494797 0.66874486 4294901760
0.85088825 0.2433376 0.76811343 4294901760
0.44745985 0.75072908 0.30746326 4294901760
0.31418675 0.84354097 0.35598311 4294901760
0.30036569 0.30025062 0.36202815 4294901760
0.053611126 0.50588006 0.92083395 4294901760
0.24520822 0.53451532 0.12080555 4294901760
0.070374146 0.18534702 0.033466153 4294901760
0.66465294 0.31956381 0.31196713 4294901760
0.72110927 0.64349508 0.20096585 4294901760
0.46683115 0.29346171 0.65933514 4294901760
0.017785503 0.02019519 0.91749179 4294901760
0.081053227 0.32418835 0.9856537 4294901760
0.81468368 0.028953191 0.57801127 4294901760
0.01908634 0.23501424 0.5909667 4294901760
0.79849893 0.60571367 0.4548749 4294901760
0.15996854 0.66964191 0.61927515 4294901760
0.16585945 0.15794797 0.65175843 4294901760
0.79081333 0.13978946 0.80877692 4294901760
0.89175594 0.7047388 0.35608697 4294901760
0.38879716 0.20144024 0.39385387 4294901760
0.42875004 0.69835782 0.25165367 4294901760
0.81470066 0.8747251 0.48266608 4294901760
0.8799203 0.3360188 0.087631561 4294901760
0.56485707 0.25585705 0.20525876 4294901760
0.92457646 0.87047309 0.61071616 4294901760
0.73519516 0.14875099 0.80009061 4294901760
0.85722011 0.079751812 0.50453937 4294901760
0.25396454 0.23561986 0.30247903 4294901760
0.87624896 0.14612028 0.6229558 4294901760
0.93873131 0.17302912 0.80767781 4294901760
0.46902779 0.20329812 0.26697007 4294901760
0.6903792 0.098939218 0.24199733 4294901760
0.30236533 0.69020587 0.39211646 4294901760
0.89935285 0.90117377 0.86269397 4294901760
0.66958976 0.92885965 0.11365677 4294901760
0.54695451 0.40673673 0.21474782 4294901760
0.2797806 0.63667512 0.42447671 4294901760
0.31610468 0.81348217 0.090268694 4294901760
0.63145024 0.46836916 0.18829955 4294901760
0.1066932 0.64798379 0.71616471 4294901760
0.045194712 0.96192819 0.33561915 4294901760
0.77496344 0.70692807 0.58067435 4294901760
0.75396466 0.16589114 0.59384871 4294901760
0.15054782 0.46589667 0.79188669 4294901760
0.68974441 0.23171861 0.21200225 4294901760
0.36022979 0.62429982 0.68662208 4294901760
0.25015435 0.057009101 0.71825397 4294901760
0.55446154 0.1028421 0.12839271 4294901760
0.75152725 0.82829612 0.79281545 4294901760
0.40749896 0.3941941 0.48827291 4294901760
0.96582866 0.40902844 0.41499305 4294901760
0.6347428 0.99672008 0.4913927 4294901760
0.61193687 0.09321849 0.75223261 4294901760
0.54549158 0.95763236 0.088835225 4294901760
0.092142135 0.35229123 0.086427182 4294901760
0.72710776 0.037175238 0.39260656 4294901760
0.71357977 0.99364495 0.48737407 4294901760
0.81885332 0.70197326 0.32485139 4294901760
0.99406689 0.36794809 0.99024546 4294901760
0.75141943 0.02449958 0.81504983 4294901760
0.51645917 0.23611209 0.31713444 4294901760
0.22241196 0.69555306 0.29781571 4294901760
0.69202894 0.37702194 0.92132175 4294901760
0.79925811 0.25243619 0.25033048 4294901760
0.43796214 0.84434384 0.40380898 4294901760
0.83832943 0.3881163 0.20659167 4294901760
0.54266667 0.77094769 0.94177002 4294901760
0.44370189 0.45511881 0.7254467 4294901760
0.95656824 0.73043066 0.34067214 4294901760
0.55808693 0.69723898 0.36925846 4294901760
0.15069881 0.68334824 0.93770039 4294901760
0.30047631 0.32174867 0.67763138 4294901760
0.90801609 0.87668455 0.55405879 4294901760
0.35778219 0.045759998 0.2640149 4294901760
0.03092902 0.54120123 0.43516198 4294901760
0.95441312 0.092463456 0.17200379 4294901760
0.73458254 0.10787947 0.41168457 4294901760
0.89678741 0.86990106 0.18309344 4294901760
0.48805243 0.17911252 0.038721316 4294901760
0.20278624 0.40518719 0.77454573 4294901760
0.2529743 0.88049132 0.58117682 4294901760
0.56031317 0.4239651 0.059938744 4294901760
0.53422064 0.059293732 0.59682745 4294901760
0.96518958 0.47943097 0.63357717 4294901760
0.64597315 0.95577461 0.39528087 4294901760
0.0071267653 0.58217609 0.64487028 4294901760
0.83444309 0.57923222 0.8794719 4294901760
0.77011621 0.31809941 0.92925334 4294901760
0.61432129 0.6058346 0.84642708 4294901760
0.35865262 0.10880727 0.71989143 4294901760
0.10258005 0.38355267 0.25357717 4294901760
0.82330835 0.017082995 0.89835548 4294901760
0.8869344 0.54307377 0.46846443 4294901760
0.062402815 0.28944144 0.098135665 4294901760
0.80212784 0.89989752 0.40133855 4294901760
0.67349654 0.89016908 0.5663541 4294901760
0.1748828 0.67640948 0.82068348 4294901760
0.96473503 0.31999657 0.946127 4294901760
0.8226862 0.86978251 0.42883745 4294901760
0.075383455 0.30562189 0.65181172 4294901760
0.19422391 0.069871269 0.96840978 4294901760
0.51501334 0.4013522 0.82057053 4294901760
0.47521448 0.9710499 0.30215022 4294901760
0.11669416 0.79421669 0.59372342 4294901760
0.56747878 0.73990315 0.10880581 4294901760
0.36658773 0.23954497 0.25394675 4294901760
0.59589416 0.35748506 0.71098906 4294901760
0.50717145 0.80092561 0.39613658 4294901760
0.85173029 0.95255244 0.33069053 4294901760
0.35369077 0.3669298 0.67739367 4294901760
0.21824948 0.67058587 0.09983556 4294901760
0.10272817 0.81726295 0.88886338 4294901760
0.81346864 0.35420245 0.93363905 4294901760
0.22604792 0.66277814 0.05281787 4294901760
0.80972373 0.86600578 0.33514529 4294901760
0.28721362 0.20298061 0.42486101 4294901760
0.04882149 0.6255368 0.27985069 4294901760
0.48333499 0.70923805 0.19543345 4294901760
0.61674517 0.60383111 0.9700613 4294901760
0.37954271 0.42521638 0.54846114 4294901760
0.21256137 0.57817805 0.39121911 4294901760
0.35629237 0.038411476 0.36310863 4294901760
0.69779176 0.21975878 0.92309153 4294901760
0.21245179 0.044939961 0.68481737 4294901760
0.13906179 0.62928653 0.41869351 4294901760
0.20090136 0.40797761 0.30679187 4294901760
0.58038294 0.56299746 0.98336071 4294901760
0.50584078 0.1850633 0.3454318 4294901760
0.58146375 0.51339644 0.44914776 4294901760
0.52869368 0.38317937 0.70435125 4294901760
0.89203167 0.25604075 0.52634102 4294901760
0.63966358 0.28117815 0.74176836 4294901760
0.51045978 0.87782133 0.74540156 4294901760
0.65102142 0.074837029 0.022052433 4294901760
0.31140658 0.22411226 0.68338037 4294901760
0.3546423 0.27201727 0.56078607 4294901760
0.86216193 0.68974197 0.8710618 4294901760
0.7845158 0.4093872 0.68258536 4294901760
0.11929937 0.3933641 0.75498164 4294901760
0.98993784 0.61714381 0.93994755 4294901760
0.40919369 0.24232759 0.35798556 4294901760
0.45042589 0.085754499 0.28118482 4294901760
0.47270414 0.1386912 0.89584357 4294901760
0.49391276 0.29240942 0.83146244 4294901760
0.4790664 0.78210312 0.14411668 4294901760
0.2521418 0.35745496 0.9695403 4294901760
0.87739676 0.02577786 0.64619601 4294901760
0.45716628 0.58934581 0.20277125 4294901760
0.72071403 0.86840302 0.93008971 4294901760
0.36911216 0.31649825 0.78770977 4294901760
0.33944088 0.48917896 0.19211276 4294901760
0.22317722 0.63509893 0.91954845 4294901760
0.45724139 0.87326884 0.1894135 4294901760
0.19883215 0.72908366 0.46556419 4294901760
0.5950132 0.36417541 0.59901232 4294901760
0.49104872 0.23118997 0.38071737 4294901760
0.70654631 0.16133855 0.15202063 4294901760
0.092032969 0.74490029 0.33430633 4294901760
0.36797911 0.37221399 0.67571002 4294901760
0.92440933 0.4673875 0.50597221 4294901760
0.72591442 0.48598239 0.96656036 4294901760
0.5437991 0.37259492 0.76146775 4294901760
0.44987404 0.24104552 0.027588559 4294901760
0.17549674 0.65790766 0.20732072 4294901760
0.84559751 0.47290421 0.71352881 4294901760
0.41695279 0.9229477 0.9038136 4294901760
0.058469608 0.84258103 0.26552162 4294901760
0.79537445 0.58314162 0.77945089 4294901760
0.32985017 0.59194767 0.30672139 4294901760
0.56469351 0.64288121 0.7567786 4294901760
0.53509486 0.26936212 0.46111861 4294901760
0.31352475 0.46190172 0.39961654 4294901760
0.48464251 0.60972488 0.81788188 4294901760
0.19510297 0.31188235 0.23110452 4294901760
0.7611444 0.84482509 0.18888609 4294901760
0.64664578 0.88891804 0.49053258 4294901760
0.6225304 0.27177024 0.87081224 4294901760
0.29940304 0.52437705 0.093529917 4294901760
0.22511241 0.67715836 0.48091611 4294901760
0.65760291 0.32513961 0.73238367 4294901760
0.30702731 0.73287368 0.86057496 4294901760
0.12454981 0.31281283 0.31099695 4294901760
0.21176071 0.59576994 0.9052031 4294901760
0.1376655 0.35884795 0.67626363 4294901760
0.12249466 0.9063738 0.87516099 4294901760
0.10973749 0.013979107 0.33619979 4294901760
0.97357434 0.82360351 0.090569288 4294901760
0.26229313 0.34375754 0.3071698 4294901760
0.7860688 0.74668139 0.71675044 4294901760
0.53951555 0.050699823 0.80005139 4294901760
0.011774195 0.84166801 0.059220262 4294901760
0.1549475 0.67903841 0.63972092 4294901760
0.20770913 0.2641699 0.66516578 4294901760
0.27234197 0.43667355 0.19939391 4294901760
0.54335231 0.35482496 0.79161131 4294901760
0.74295336 0.67443001 0.58464199 4294901760
0.96413785 0.080779701 0.22303289 4294901760
0.24532385 0.95544702 0.93321931 4294901760
0.70528954 0.6859414 0.94588447 4294901760
0.67444062 0.69398534 0.91726464 4294901760
0.5932911 0.92725635 0.082533836 4294901760
0.25071818 0.59153044 0.14816754 4294901760
0.46964201 0.56972802 0.46972981 4294901760
0.83126205 0.85598838 0.039249409 4294901760
0.65857625 0.091306753 0.584975 4294901760
0.28984082 0.2403138 0.89801598 4294901760
0.92324746 0.29541516 0.39117536 4294901760
0.27776152 0.27100894 0.16945903 4294901760
0.29037359 0.77521157 0.90786701 4294901760
0.35479319 0.46790662 0.01202487 4294901760
0.54822135 0.98857611 0.5941844 4294901760
0.07814835 0.70300871 0.78576618 4294901760
0.22517748 0.22964607 0.053137206 4294901760
0.85192251 0.71284533 0.49813831 4294901760
0.51065552 0.61458296 0.46194935 4294901760
0.39232719 0.088459402 0.092745423 4294901760
0.37126812 0.29505646 0.33985862 4294901760
0.59925991 0.53292561 0.30229193 4294901760
0.52696645 0.88843256 0.50997484 4294901760
0.97319466 0.45145625 0.3309696 4294901760
0.38102347 0.34303814 0.49040806 4294901760
0.49015763 0.64585 0.24969546 4294901760
0.262218 0.25226128 0.061644126 4294901760
0.91029143 0.35346046 0.062182032 4294901760
0.059666142 0.54554212 0.88240945 4294901760
0.54978091 0.18989946 0.97673273 4294901760
0.28837356 0.12634982 0.4518652 4294901760
0.97223353 0.41543621 0.98621213 4294901760
0.11770892 0.012305768 0.48200193 4294901760
0.60495239 0.53287774 0.7152729 4294901760
0.072651073 0.72500992 0.35664836 4294901760
0.22183578 0.1911786 0.66569042 4294901760
0.0047703497 0.39603728 0.37425414 4294901760
0.0035163327 0.41446608 0.54869509 4294901760
0.67964816 0.18101783 0.062547922 4294901760
0.037637707 0.13260607 0.27530849 4294901760
0.74547899 0.30929136 0.11037429 4294901760
0.69670916 0.3020716 0.17073362 4294901760
0.79943711 0.014930358 0.21555702 4294901760
0.68357641 0.32784447 0.02225321 4294901760
0.41863504 0.8611238 0.12140297 4294901760
0.24355705 0.28336039 0.67456573 4294901760
0.41488737 0.58651721 0.48662964 4294901760
0.61047727 0.67251027 0.62715173 4294901760
0.6188041 0.55725026 0.074228309 4294901760
0.68942028 0.26337248 0.98141533 4294901760
0.14943764 0.81624043 0.88628632 4294901760
0.1875346 0.75868946 0.43592501 4294901760
0.99120104 0.47440222 0.71966803 4294901760
0.66232383 0.07092195 0.84408301 4294901760
0.87161309 0.34288135 0.53504288 4294901760
0.18399088 0.57943165 0.22187874 4294901760
0.77135968 0.69279069 0.24963754 4294901760
0.74716103 0.61751491 0.20687382 4294901760
0.58946508 0.76525772 0.51335162 4294901760
0.97337919 0.96504867 0.35279366 4294901760
0.69371891 0.87700868 0.59660381 4294901760
0.1175148 0.73112106 0.83172077 4294901760
0.088727847 0.72798926 0.2435182 4294901760
0.59136355 0.19670874 0.5234943 4294901760
0.18829322 0.65926385 0.49592897 4294901760
0.89441174 0.37519759 0.13917503 4294901760
0.15877666 0.38764474 0.1455722 4294901760
0.21657935 0.28324321 0.080960736 4294901760
0.41860709 0.1502082 0.95934415 4294901760
0.62923777 0.92155266 0.51757866 4294901760
0.93659562 0.90680218 0.10737985 4294901760
0.19702077 0.74852931 0.088081703 4294901760
0.11718819 0.78769433 0.8508293 4294901760
0.53976208 0.48974687 0.40176326 4294901760
0.15534031 0.8369453 0.42114016 4294901760
0.92344952 0.82465434 0.96073997 4294901760
0.17605169 0.34320036 0.39493489 4294901760
0.15971467 0.36111218 0.16287936 4294901760
0.92019719 0.69131035 0.18331426 4294901760
0.098691545 0.74454987 0.90529627 4294901760
0.1232046 0.63004804 0.073529936 4294901760
0.37545463 0.78772259 0.84894514 4294901760
0.7005356 0.98663247 0.35416794 4294901760
0.8344661 0.94809133 0.84980214 4294901760
0.043672219 0.0052195624 0.067557469 4294901760
0.65848899 0.10667785 0.53129905 4294901760
0.91316193 0.98982918 0.977732 4294901760
0.20479713 0.7016269 0.49869391 4294901760
0.1634668 0.066995472 0.52244061 4294901760
0.075314753 0.82025617 0.5277729 4294901760
0.47757578 0.040341273 0.87360245 4294901760
0.8799094 0.2858955 0.51535118 4294901760
0.96986294 0.97174388 0.28114721 4294901760
0.077746294 0.58429271 0.25122139 4294901760
0.78715426 0.26663238 0.37124562 4294901760
0.46770561 0.69611555 0.32563645 4294901760
0.35753715 0.11518858 0.67126048 4294901760
0.37065783 0.47294948 0.67613727 4294901760
0.39989397 0.99615997 0.51995069 4294901760
0.26688948 0.44858307 0.07947509 4294901760
0.75569624 0.88971156 0.72358835 4294901760
0.28237519 0.030418888 0.22161497 4294901760
0.38117573 0.40693912 0.87316805 4294901760
0.42317751 0.65142894 0.31592616 4294901760
0.37165985 0.37608567 0.65721053 4294901760
0.57238919 0.14159881 0.77450544 4294901760
0.28665417 0.1346004 0.0032978207 4294901760
0.75726348 0.17849338 0.52816385 4294901760
0.060160909 0.66851044 0.62327349 4294901760
0.17275901 0.56580007 0.055647317 4294901760
0.57487804 0.33661929 0.92279208 4294901760
0.18837303 0.8901692 0.30745926 4294901760
0.9119038 0.28246105 0.88648331 4294901760
0.97789055 0.74290735 0.19499336 4294901760
0.062480584 0.96746093 0.33908001 4294901760
0.675183 0.58830029 0.89703387 4294901760
0.5684942 0.84785616 0.13847798 4294901760
0.77301133 0.77845538 0.082420669 4294901760
0.65367323 0.99622941 0.012544245 4294901760
0.61764747 0.82547694 0.61541903 4294901760
0.45788413 0.49048403 0.19246052 4294901760
0.63857234 0.25336424 0.43530974 4294901760
0.61567986 0.59004706 0.68118244 4294901760
0.89449704 0.79559648 0.91951609 4294901760
0.37234652 0.26331854 0.88834822 4294901760
0.80649507 0.77431428 0.83574796 4294901760
0.072258599 0.69443339 0.26155841 4294901760
0.058543503 0.066300996 0.036390603 4294901760
0.37777418 0.64490068 0.41451478 4294901760
0.077991754 0.69549847 0.31794649 4294901760
0.56296277 0.21107207 0.34018168 4294901760
0.64569795 0.20423488 0.7346831 4294901760
0.68996531 0.086934082 0.89210558 4294901760
0.037577547 0.93844867 0.23605214 4294901760
0.92376268 0.33879301 0.86398631 4294901760
0.73997372 0.11723138 0.66398889 4294901760
0.72781479 0.22011715 0.47809884 4294901760
0.88239509 0.37536091 0.60091001 4294901760
0.96271867 0.12628941 0.69512343 4294901760
0.53862017 0.38680378 0.88176584 4294901760
0.036699027 0.48769161 0.70773411 4294901760
0.82170451 0.062954947 0.066893362 4294901760
0.10925757 0.59782785 0.69576842 4294901760
0.38416421 0.097253002 0.29717532 4294901760
0.058373351 0.43001792 0.12463503 4294901760
0.5150165 0.42726409 0.41171628 4294901760
0.19320975 0.66616178 0.92094499 4294901760
0.34576783 0.17768891 0.14736812 4294901760
0.72902179 0.86450529 0.95622623 4294901760
0.15817884 0.66159946 0.9104315 4294901760
0.30876791 0.24261081 0.68585539 4294901760
0.99725169 0.72234941 0.80477637 4294901760
0.80612552 0.34598935 0.745166 4294901760
0.88221174 0.93887639 0.27298793 4294901760
0.16653791 0.47620732 0.34958324 4294901760
0.70252579 0.73422003 0.82772315 4294901760
0.81825495 0.28149766 0.59385186 4294901760
0.49400586 0.09995503 0.49561411 4294901760
0.53525907 0.81248963 0.21020785 4294901760
0.88945055 0.96163893 0.79927027 4294901760
0.93694818 0.46688426 0.51579332 4294901760
0.018825207 0.47354659 0.32198682 4294901760
0.05415922 0.090457566 0.95792067 4294901760
0.48091146 0.023054319 0.59536594 4294901760
0.12597582 0.86913073 0.24154675 4294901760
0.15077154 0.19874799 0.90067995 4294901760
0.86447871 0.76149023 0.6213544 4294901760
0.38822579 0.66409135 0.17419012 4294901760
0.46779507 0.065472938 0.31394634 4294901760
0.072558887 0.19945127 0.071500547 4294901760
0.79702485 0.60650438 0.058288869 4294901760
0.72670871 0.462695 0.93461406 4294901760
0.39892122 0.18629961 0.33373228 4294901760
0.48295039 0.36138016 0.51493347 4294901760
0.23283745 0.067254908 0.69030136 4294901760
0.27711138 0.47972071 0.13667466 4294901760
0.82558787 0.031039473 0.93706995 4294901760
0.35483491 0.25195983 0.52884328 4294901760
0.39577052 0.76725161 0.34389383 4294901760
0.56154788 0.18570812 0.92324317 4294901760
0.90597808 0.22764741 0.42756844 4294901760
0.8316983 0.92436987 0.84040731 4294901760
0.64465916 0.52504528 0.38797927 4294901760
0.71941417 0.55151623 0.7076602 4294901760
0.73627019 0.13754094 0.60130352 4294901760
0.61659539 0.22954401 0.95068026 4294901760
0.68893135 0.9848842 0.83663863 4294901760
0.0042669866 0.36386845 0.86310428 4294901760
0.40945452 0.047206886 0.55311525 4294901760
0.74131739 0.084033184 0.033225682 4294901760
0.57487732 0.18088426 0.6668033 4294901760
0.54760683 0.38891903 0.73278552 4294901760
0.67086273 0.64271283 0.56022161 4294901760
