# .PCD v0.7 - Point Cloud Data file format
VERSION 0.7
FIELDS x y z rgb
SIZE 4 4 4 4
TYPE F F F U
COUNT 1 1 1 1
WIDTH 1087
HEIGHT 1
VIEWPOINT 0 0 0 1 0 0 0
POINTS 1087
DATA ascii
0.82899308 0.8696658 0.87298977 4294901760
0.97744817 0.17398052 0.025354065 4294901760
0.42582461 0.27696007 0.91256368 4294901760
0.63626838 0.50834727 0.022537319 4294901760
0.015138073 0.25844607 0.9536829 4294901760
0.5384801 0.95176184 0.52612424 4294901760
0.06917949 0.36913908 0.63638747 4294901760
0.94989067 0.64938152 0.29654485 4294901760
0.088949896 0.52421337 0.67861778 4294901760
0.79413605 0.97402263 0.028372593 4294901760
0.60855335 0.51330709 0.93140912 4294901760
0.070071705 0.79293126 0.4723475 4294901760
0.86724913 0.71724665 0.34477502 4294901760
0.53261214 0.72532445 0.62541562 4294901760
0.74761534 0.11036778 0.90279269 4294901760
0.43630001 0.82098883 0.92607296 4294901760
0.60042483 0.65119493 0.78378165 4294901760
0.6536932 0.99052984 0.76936078 4294901760
0.85563183 0.59195751 0.82050008 4294901760
0.11264671 0.8298769 0.46009073 4294901760
0.095242314 0.22461075 0.8073191 4294901760
0.77624065 0.15736391 0.43470165 4294901760
0.52333021 0.076750852 0.60050249 4294901760
0.66258776 0.35406706 0.32172665 4294901760
0.41560447 0.64055616 0.63155478 4294901760
0.89508158 0.97234017 0.44256964 4294901760
0.10867918 0.47149608 0.97532469 4294901760
0.43907249 0.67567736 0.75793028 4294901760
0.51778382 0.86275977 0.032976639 4294901760
0.82750881 0.46769559 0.10483935 4294901760
0.62381822 0.89181185 0.10660202 4294901760
0.89117116 0.13741817 0.82963091 4294901760
0.31409088 0.34918171 0.11149172 4294901760
0.59765428 0.44452083 0.19401066 4294901760
0.4040828 0.9149968 0.1155593 4294901760
0.084062137 0.66597432 0.51714373 4294901760
0.41267252 0.85952652 0.17366624 4294901760
0.21197328 0.031989202 0.66216308 4294901760
0.28762081 0.55264467 0.92956054 4294901760
0.99712974 0.37304917 0.19582161 4294901760
0.016201004 0.35444832 0.19022548 4294901760
0.47960737 0.33632812 0.37320945 4294901760
0.67240632 0.87130809 0.91991025 4294901760
0.43449017 0.6552127 0.24735774 4294901760
0.61867356 0.14082313 0.26308677 4294901760
0.75910807 0.11195738 0.75282997 4294901760
0.47934294 0.85096872 0.64556992 4294901760
0.21604577 0.61479002 0.079893947 4294901760
0.80874145 0.12725225 0.63057715 4294901760
0.19419405 0.21126457 0.036092658 4294901760
0.79388356 0.031391855 0.77033442 4294901760
0.88816589 0.31575286 0.46935016 4294901760
0.561777 0.6531617 0.87583238 4294901760
0.30859286 0.24931046 0.61757636 4294901760
0.97473836 0.89231664 0.92410922 4294901760
0.81475651 0.45817798 0.85387731 4294901760
0.301539 0.062153518 0.22783299 4294901760
0.72972518 0.73984516 0.99091637 4294901760
0.91531944 0.94724774 0.33439866 4294901760
0.39390343 0.376665 0.81802219 4294901760
0.23758435 0.42950463 0.066867225 4294901760
0.45900041 0.0093209557 0.16000395 4294901760
0.47551221 0.9752714 0.98972565 4294901760
0.17582828 0.034251988 0.15826298 4294901760
0.57679582 0.9243077 0.21620348 4294901760
0.61227155 0.28605151 0.26287299 4294901760
0.60228127 0.8010574 0.44556677 4294901760
0.50297832 0.10496011 0.90395838 4294901760
0.58454925 0.87782776 0.85654271 4294901760
0.049003981 0.095174484 0.93854767 4294901760
0.87733912 0.90223503 0.86148351 4294901760
0.24234629 0.95475554 0.38695166 4294901760
0.1283624 0.49598733 0.44697991 4294901760
0.95901376 0.23317003 0.56753141 4294901760
0.38845006 0.21134695 0.40177965 4294901760
0.07185106 0.82840019 0.048476432 4294901760
0.86076206 0.65626729 0.21983135 4294901760
0.38386351 0.7146312 0.80839425 4294901760
0.95964199 0.21076974 0.84246439 4294901760
0.964724 0.72319674 0.46842858 4294901760
0.51500863 0.23933014 0.21920362 4294901760
0.15283918 0.61582947 0.45642236 4294901760
0.097265743 0.16081709 0.13188434 4294901760
0.22319166 0.66719985 0.26890048 4294901760
0.94984543 0.046973974 0.0056727901 4294901760
0.78561854 0.45783642 0.8035211 4294901760
0.60444385 0.91338968 0.92998302 4294901760
0.61304665 0.019645382 0.9665944 4294901760
0.21748506 0.36799091 0.69573557 4294901760
0.23480037 0.94191402 0.89996648 4294901760
0.28275886 0.19752234 0.35034847 4294901760
0.56753093 0.99556774 0.89336389 4294901760
0.56166929 0.58486581 0.15287469 4294901760
0.10025559 0.44246948 0.79328752 4294901760
0.81957644 0.13345796 0.98266631 4294901760
0.80818969 0.93807977 0.041750304 4294901760
0.75769365 0.79132402 0.87959301 4294901760
0.32880151 0.67193842 0.97627246 4294901760
0.75496203 0.47958469 0.39814895 4294901760
0.25098309 0.83878666 0.078015879 4294901760
0.56214231 0.13210866 0.45824233 4294901760
0.34041011 0.86899936 0.31472039 4294901760
0.48016354 0.76246649 0.6385572 4294901760
0.30016682 0.4421798 0.13399789 4294901760
0.56268775 0.55260527 0.59066576 4294901760
0.72432601 0.92878914 0.24101661 4294901760
0.004731453 0.99695361 0.30841708 4294901760
0.75991452 0.13188313 0.1690146 4294901760
0.16802853 0.89499021 0.74399626 4294901760
0.27378902 0.71438026 0.56714833 4294901760
0.81124258 0.76299602 0.42597041 4294901760
0.19822343 0.84585702 0.40967152 4294901760
0.26172549 0.51132429 0.49285641 4294901760
0.94329298 0.25621244 0.25244007 4294901760
0.50753951 0.4028888 0.80454594 4294901760
0.27134949 0.47546986 0.8561514 4294901760
0.16203487 0.29410172 0.51828706 4294901760
0.57993841 0.81073093 0.64725071 4294901760
0.053446822 0.33305344 0.22960207 4294901760
0.53219366 0.56639558 0.26511648 4294901760
0.33725804 0.88915211 0.77734977 4294901760
0.51495928 0.47091493 0.32218781 4294901760
0.81596357 0.80641836 0.84549463 4294901760
0.56153435 0.35612407 0.5104714 4294901760
0.51124603 0.91947639 0.56548733 4294901760
0.546188 0.074282363 0.62124515 4294901760
0.21606028 0.54465806 0.61836737 4294901760
0.41685894 0.97239959 0.75955665 4294901760
0.12070002 0.59785658 0.43641767 4294901760
0.38305956 0.87727344 0.45958036 4294901760
0.19795497 0.75337297 0.44493631 4294901760
0.051544189 0.13709256 0.7743383 4294901760
0.16494614 0.41439492 0.5237664 4294901760
0.95480996 0.048739538 0.44683033 4294901760
0.39135975 0.70058393 0.75369263 4294901760
0.40655923 0.61854202 0.75092953 4294901760
0.47409436 0.33698359 0.19149159 4294901760
0.23970158 0.23492625 0.8493765 4294901760
0.86941218 0.82264733 0.67700064 4294901760
0.20080659 0.013704809 0.95331168 4294901760
0.83159834 0.41512257 0.01072262 4294901760
0.45751935 0.42308268 0.92881906 4294901760
0.89839566 0.46769455 0.52163953 4294901760
0.066182606 0.88924384 0.80437589 4294901760
0.74217933 0.38393244 0.081331372 4294901760
0.23739441 0.94876873 0.12468474 4294901760
0.93233353 0.099587336 0.083325751 4294901760
0.59229332 0.7833969 0.85010976 4294901760
0.6433903 0.55280781 0.45176613 4294901760
0.13902824 0.36352298 0.056756839 4294901760
0.20528486 0.94923836 0.20274423 4294901760
0.65086186 0.7426126 0.31172168 4294901760
0.61856705 0.16580456 0.56359625 4294901760
0.27503765 0.42031547 0.55108511 4294901760
0.50512683 0.54337114 0.86191314 4294901760
0.23342735 0.14982386 0.78405249 4294901760
0.18857032 0.31482887 0.61625612 4294901760
0.92860794 0.6509096 0.30212778 4294901760
0.19398691 0.049881168 0.45342332 4294901760
0.49937195 0.43794885 0.87714243 4294901760
0.99549782 0.072899796 0.093366668 4294901760
0.3833341 0.43467364 0.26593542 4294901760
0.42291665 0.33828405 0.58635342 4294901760
0.53781855 0.34878698 0.5591048 4294901760
0.18607651 0.77962458 0.6948092 4294901760
0.52174443 0.8974635 0.70529568 4294901760
0.068967313 0.51554412 0.70900238 4294901760
0.042043362 0.72074246 0.40372807 4294901760
0.93822354 0.43578708 0.68542409 4294901760
0.82800132 8.9171925e-05 0.22697526 4294901760
0.078917325 0.90771562 0.55239594 4294901760
0.41737962 0.042948809 0.21948871 4294901760
0.091767073 0.93282473 0.66236025 4294901760
0.79613841 0.49804229 0.35361081 4294901760
0.26377827 0.95395213 0.28462031 4294901760
0.93605453 0.77436954 0.61154032 4294901760
0.64265651 0.38436532 0.96220344 4294901760
0.52986515 0.82760185 0.80253798 4294901760
0.7318387 0.70132321 0.38752359 4294901760
0.48610482 0.35375392 0.089226127 4294901760
0.55508292 0.49695316 0.61731994 4294901760
0.14300394 0.85672861 0.9111352 4294901760
0.082274057 0.55416876 0.062644869 4294901760
0.98260593 0.91772866 0.38782036 4294901760
0.9670437 0.10423352 0.44903582 4294901760
0.37943739 0.16557281 0.79683536 4294901760
0.77773249 0.74379224 0.2329171 4294901760
0.85131973 0.12279733 0.82323289 4294901760
0.23020987 0.076457173 0.12959163 4294901760
0.19178446 0.69967729 0.91961426 4294901760
0.48487693 0.7951259 0.18213452 4294901760
0.91565216 0.47485486 0.32246524 4294901760
0.16877787 0.44013408 0.073679075 4294901760
0.37235355 0.27545115 0.3142322 4294901760
0.75278163 0.56363416 0.027399424 4294901760
0.81697178 0.13403848 0.94467902 4294901760
0.61390376 0.26055378 0.46491182 4294901760
0.32583177 0.1760034 0.27980953 4294901760
0.73939925 0.31811985 0.33620304 4294901760
0.52270097 0.81022704 0.86227006 4294901760
0.47417486 0.0824131 0.76687604 4294901760
0.86234021 0.79741186 0.39409566 4294901760
0.77908176 0.19773014 0.91611886 4294901760
0.12778868 0.17273197 0.34375554 4294901760
0.54947817 0.95334101 0.76477593 4294901760
0.20688818 0.20202598 0.96132672 4294901760
0.61909157 0.33043513 0.65291202 4294901760
0.43034783 0.44316572 0.57598037 4294901760
0.7424894 0.63116193 0.79290599 4294901760
0.87295151 0.92689103 0.31888413 4294901760
0.27345496 0.0016780471 0.42281622 4294901760
0.34102875 0.85538393 0.0041078739 4294901760
0.48234537 0.07284198 0.89826387 4294901760
0.29707989 0.22684371 0.21934365 4294901760
0.4667531 0.39078519 0.90990931 4294901760
0.43491802 0.19723096 0.97395301 4294901760
0.63423288 0.99283886 0.12608615 4294901760
0.428186 0.36316541 0.3377153 4294901760
0.30282798 0.16571042 0.52440983 4294901760
0.88981736 0.53468281 0.93306005 4294901760
0.1978372 0.10877222 0.90496123 4294901760
0.062106643 0.30294713 0.55231559 4294901760
0.1086093 0.83742237 0.6696111 4294901760
0.39612663 0.94953626 0.16719617 4294901760
0.97981358 0.23959115 0.185958 4294901760
0.99086583 0.45083517 0.22259383 4294901760
0.6734159 0.89891762 0.22499572 4294901760
0.45535618 0.42323774 0.13934349 4294901760
0.81594092 0.03611996 0.21037167 4294901760
0.045628335 0.91847265 0.74482399 4294901760
0.081758052 0.00571599 0.44647011 4294901760
0.46947962 0.05794121 0.76590282 4294901760
0.42155731 0.19639759 0.82547587 4294901760
0.96319515 0.83475453 0.075731814 4294901760
0.45519826 0.96824253 0.96617639 4294901760
0.68025517 0.69940192 0.50030708 4294901760
0.26746482 0.44543651 0.75134802 4294901760
0.053982906 0.86530846 0.41353244 4294901760
0.55118316 0.79317027 0.58644027 4294901760
0.3538712 0.26756263 0.81424081 4294901760
0.7675851 0.85532087 0.26047724 4294901760
0.24193241 0.57313401 0.18718809 4294901760
0.022484757 0.63817561 0.81478232 4294901760
0.72568274 0.20342934 0.19923076 4294901760
0.96969891 0.20328009 0.10708421 4294901760
0.45778033 0.071940452 0.14175799 4294901760
0.0066838469 0.27350989 0.93800414 4294901760
0.67581117 0.33426991 0.95250261 4294901760
0.70103759 0.53684473 0.27206892 4294901760
0.83862084 0.84409839 0.3581152 4294901760
0.62473458 0.6134389 0.47749245 4294901760
0.66939819 0.628869 0.19958122 4294901760
0.65583694 0.32134345 0.97086239 4294901760
0.027672393 0.053749606 0.42189997 4294901760
0.61770082 0.0036080875 0.08071664 4294901760
0.71495622 0.31609192 0.89078826 4294901760
0.81427068 0.54945821 0.14234254 4294901760
0.23253371 0.43596843 0.28444317 4294901760
0.35280421 0.18810974 0.098543949 4294901760
0.44844615 0.085563652 0.19029824 4294901760
0.077959128 0.88135338 0.73421961 4294901760
0.91202348 0.88946289 0.9203679 4294901760
0.47659504 0.64626455 0.17082466 4294901760
0.8980943 0.14826709 0.11992449 4294901760
0.70498008 0.90957236 0.86407733 4294901760
0.84480155 0.37584493 0.98397702 4294901760
0.5461446 0.12280786 0.1630142 4294901760
0.90297192 0.79912251 0.62800926 4294901760
0.58089781 0.60180205 0.47279173 4294901760
0.69617158 0.37471244 0.45816603 4294901760
0.84725386 0.061948508 0.92166752 4294901760
0.9644919 0.59521282 0.46855968 4294901760
0.90031362 0.84671444 0.61139333 4294901760
0.28795522 0.061323501 0.31689498 4294901760
0.64325321 0.49988085 0.37488288 4294901760
0.69771272 0.97618866 0.8217358 4294901760
0.57826906 0.28402075 0.64327681 4294901760
0.47840402 0.49043909 0.78163987 4294901760
0.12735404 0.89554137 0.34696507 4294901760
0.55546486 0.40219489 0.91385907 4294901760
0.83487886 0.35555753 0.38748676 4294901760
0.048212916 0.7676326 0.24251871 4294901760
0.85569155 0.14116649 0.6923244 4294901760
0.34046999 0.82387435 0.71563321 4294901760
0.67802715 0.42178154 0.94332802 4294901760
0.091405459 0.88896829 0.91292733 4294901760
0.53092569 0.043909442 0.23291537 4294901760
0.42071494 0.74231547 0.90500134 4294901760
0.38132754 0.21580791 0.38758367 4294901760
0.95790404 0.48203123 0.04127913 4294901760
0.36028686 0.18349873 0.13930231 4294901760
0.68906569 0.5330295 0.34503618 4294901760
0.5202713 0.30013287 0.21224232 4294901760
0.81388474 0.68287367 0.81565624 4294901760
0.98249781 0.33244997 0.11617159 4294901760
0.81005901 0.62087321 0.018460618 4294901760
0.42434052 0.19602546 0.96561021 4294901760
0.0056459215 0.56902951 0.4191035 4294901760
0.79669344 0.52631229 0.26115844 4294901760
0.6280027 0.28808177 0.12190273 4294901760
0.47479948 0.97239584 0.18149273 4294901760
0.61493015 0.72032964 0.46122041 4294901760
0.58915901 0.068081446 0.5187754 4294901760
0.23923087 0.18065567 0.11679722 4294901760
0.292328 0.27800876 0.86566395 4294901760
0.65432858 0.18525179 0.26923463 4294901760
0.82684016 0.85944188 0.56242764 4294901760
0.57523429 0.69399881 0.19350308 4294901760
0.1754223 0.52047896 0.60473776 4294901760
0.10806933 0.44012511 0.67891926 4294901760
0.74939173 0.50833511 0.9693743 4294901760
0.64816612 0.3710396 0.9120599 4294901760
0.87455916 0.88495296 0.13931274 4294901760
0.19822773 0.088311508 0.46050048 4294901760
0.11299773 0.2721594 0.76104182 4294901760
0.68781316 0.94979244 0.25260377 4294901760
0.29660735 0.63712287 0.52601206 4294901760
0.98562109 0.14367162 0.84474468 4294901760
0.98041558 0.051999375 0.43724927 4294901760
0.83373457 0.94033515 0.73441714 4294901760
0.99513042 0.30067563 0.95409292 4294901760
0.48568234 0.30387014 0.8040688 4294901760
0.95206416 0.33071199 0.23061699 4294901760
0.32535246 0.2077187 0.40956891 4294901760
0.79614019 0.2298173 0.36498407 4294901760
0.73777705 0.24923758 0.30423728 4294901760
0.33456281 0.61493391 0.92299205 4294901760
0.2863903 0.91953474 0.9432537 4294901760
0.71085376 0.70735401 0.34022212 4294901760
0.77963734 0.31345862 0.1191277 4294901760
0.91280264 0.1279452 0.40052608 4294901760
0.25447831 0.3491064 0.4950937 4294901760
0.79348445 0.44843388 0.75983733 4294901760
0.69126999 0.56690848 0.29620025 4294901760
0.84007657 0.27989712 0.90526295 4294901760
0.41938961 0.57187027 0.62902254 4294901760
0.70042497 0.24724098 0.91535509 4294901760
0.52165067 0.41484195 0.61396599 4294901760
0.097283825 0.96668303 0.68571162 4294901760
0.22634415 0.89836186 0.88497949 4294901760
0.67342353 0.64275753 0.00046737574 4294901760
0.86202335 0.7755174 0.024934012 4294901760
0.79363316 0.91252172 0.82185453 4294901760
0.011395956 0.54584914 0.44269094 4294901760
0.96188515 0.083156168 0.23718344 4294901760
0.17463243 0.12906112 0.029794455 4294901760
0.38691264 0.98581243 0.46597487 4294901760
0.43962273 0.42281526 0.071974695 4294901760
0.7433672 0.45940953 0.8195951 4294901760
0.94811958 0.37929052 0.074249707 4294901760
0.45088604 0.45442513 0.65844363 4294901760
0.61967468 0.49807498 0.11272337 4294901760
0.29978213 0.63065749 0.52955383 4294901760
0.98094279 0.76935643 0.39875212 4294901760
0.43860653 0.87758332 0.356976 4294901760
0.13493548 0.80873185 0.51986736 4294901760
0.61490506 0.20817082 0.17026459 4294901760
0.44394907 0.1612583 0.17475912 4294901760
0.490859 0.46876651 0.68231362 4294901760
0.38323408 0.34450507 0.32026717 4294901760
0.66045809 0.17301339 0.98067528 4294901760
0.94291025 0.9326635 0.27954292 4294901760
0.39926085 0.1665511 0.76984483 4294901760
0.26843774 0.010646925 0.088066116 4294901760
0.28328681 0.52513313 0.50040495 4294901760
0.080572858 0.47123015 0.34327418 4294901760
0.66425544 0.49687421 0.6915217 4294901760
0.7442314 0.66586494 0.42235211 4294901760
0.60378593 0.52814752 0.46820292 4294901760
0.50301373 0.89498711 0.15240259 4294901760
0.24414834 0.88041383 0.43597403 4294901760
0.9003318 0.76251704 0.21624124 4294901760
0.094220825 0.79545003 0.27865866 4294901760
0.21969783 0.87584049 0.99664664 4294901760
0.89450026 0.045765277 0.91884649 4294901760
0.25221193 0.94057983 0.2000813 4294901760
0.44415444 0.40540868 0.19413383 4294901760
0.24297269 0.76180524 0.4121998 4294901760
0.011756661 0.65559965 0.45926613 4294901760
0.037623275 0.41121519 0.39068311 4294901760
0.68281215 0.24375388 0.88184756 4294901760
0.98190236 0.27508196 0.92418677 4294901760
0.71445537 0.69047999 0.24683765 4294901760
0.15752402 0.79383993 0.97643143 4294901760
0.81150615 0.93108273 0.75599009 4294901760
0.47962648 0.44361636 0.5727793 4294901760
0.38695216 0.77666444 0.77939653 4294901760
0.54626185 0.3211464 0.4509154 4294901760
0.46343455 0.57265151 0.61523753 4294901760
0.31511703 0.43361384 0.9560287 4294901760
0.44426012 0.61334014 0.53133863 4294901760
0.62346327 0.32779405 0.38757515 4294901760
0.14814921 0.87415105 0.71178824 4294901760
0.66143703 0.9862659 0.0088427439 4294901760
0.35555393 0.26790783 0.66032797 4294901760
0.19226265 0.66868192 0.56772923 4294901760
0.88130456 0.81999093 0.26725405 4294901760
0.32749581 0.53482664 0.71849 4294901760
0.51414633 0.75357288 0.5106926 4294901760
0.58098322 0.92016006 0.92126679 4294901760
0.93619478 0.66793865 0.099938028 4294901760
0.50619876 0.075971678 0.40934861 4294901760
0.22273597 0.23766544 0.73592985 4294901760
0.50468069 0.13799517 0.42058527 4294901760
0.059174806 0.10288605 0.63554519 4294901760
0.89352506 0.81553501 0.57135701 4294901760
0.03686361 0.74503386 0.30462858 4294901760
0.85974336 0.67609012 0.3052161 4294901760
0.65881813 0.47519454 0.51754737 4294901760
0.94513422 0.96388882 0.26392934 4294901760
0.60822797 0.2820664 0.73856336 4294901760
0.076958269 0.395567 0.59865069 4294901760
0.65720206 0.26799652 0.99637467 4294901760
0.65314537 0.5831145 0.24079259 4294901760
0.48570257 0.27114838 0.65118861 4294901760
0.72493291 0.018164553 0.86812544 4294901760
0.93348444 0.013870388 0.92344034 4294901760
0.86988795 0.53482163 0.27560243 4294901760
0.81374586 0.93110675 0.95633441 4294901760
0.22072719 0.1021706 0.90535855 4294901760
0.85144323 0.1266385 0.39809367 4294901760
0.050938599 0.31075776 0.33400592 4294901760
0.19214551 0.32970747 0.43169746 4294901760
0.26507884 0.4132652 0.75826561 4294901760
0.81689048 0.049065415 0.12331163 4294901760
0.35686401 0.69726276 0.34366727 4294901760
0.52101654 0.89946365 0.82222909 4294901760
0.72788548 0.30861235 0.078958087 4294901760
0.51097876 0.32515344 0.78461063 4294901760
0.37571397 0.78457308 0.95726508 4294901760
0.32700726 0.51569444 0.70331109 4294901760
0.989833 0.51716793 0.23437311 4294901760
0.30564231 0.37446466 0.70807689 4294901760
0.24754767 0.59508669 0.41532767 4294901760
0.46514782 0.23948912 0.027570441 4294901760
0.68401283 0.67943442 0.28890398 4294901760
0.78998709 0.92542362 0.6752848 4294901760
0.80453134 0.67033768 0.097464778 4294901760
0.92560452 0.56589109 0.28605184 4294901760
0.09550041 0.63258404 0.10195368 4294901760
0.14220169 0.13365197 0.25245237 4294901760
0.12242563 0.76347554 0.74748558 4294901760
0.59969682 0.51418436 0.41770434 4294901760
0.72094947 0.64235473 0.25914091 4294901760
0.73245507 0.16291951 0.34479919 4294901760
0.75551707 0.57191318 0.55709338 4294901760
0.26591334 0.47201502 0.3443836 4294901760
0.35308307 0.31656635 0.32583985 4294901760
0.57910562 0.58072454 0.63389891 4294901760
0.053502336 0.076578885 0.34345922 4294901760
0.66458488 0.30979985 0.92171681 4294901760
0.70779288 0.45018443 0.97203803 4294901760
0.96768928 0.86733598 0.59099591 4294901760
0.69109386 0.74834824 0.67965436 4294901760
0.14078213 0.70742166 0.7456907 4294901760
0.55410451 0.643668 0.99357373 4294901760
0.20524877 0.53677696 0.32597274 4294901760
0.58110482 0.95457226 0.28814343 4294901760
0.74937934 0.47067055 0.78267306 4294901760
0.91382515 0.64164269 0.22952154 4294901760
0.7753194 0.3816632 0.84281254 4294901760
0.13743079 0.99568081 0.36158729 4294901760
0.59455973 0.64005637 0.70493591 4294901760
0.22051483 0.59188133 0.30990818 4294901760
0.17708179 0.82388228 0.8908264 4294901760
0.28297034 0.35206583 0.43784001 4294901760
0.012359961 0.17587176 0.72070968 4294901760
0.11717485 0.94210649 0.85356027 4294901760
0.07256975 0.95941085 0.21582641 4294901760
0.45368439 0.19894221 0.4261753 4294901760
0.40270901 0.31083283 0.1066209 4294901760
0.47267115 0.081134804 0.58541435 4294901760
0.19833326 0.76295465 0.33735824 4294901760
0.20373037 0.27025202 0.17983131 4294901760
0.7692731 0.046665858 0.90332568 4294901760
0.90227884 0.13765082 0.86155629 4294901760
0.79164904 0.15326914 0.53381258 4294901760
0.48215213 0.01250712 0.70355928 4294901760
0.4760507 0.28477812 0.72272027 4294901760
0.32441455 0.075780377 0.43150756 4294901760
0.24834487 0.52118766 0.89834952 4294901760
0.54888624 0.28545237 0.42866576 4294901760
0.53003329 0.57095742 0.98364568 4294901760
0.0075376919 0.034928814 0.24736077 4294901760
0.9212296 0.46752834 0.10940745 4294901760
0.17480594 0.36626646 0.35347083 4294901760
0.062073894 0.56935269 0.17513114 4294901760
0.37691796 0.035394806 0.16771562 4294901760
0.11404008 0.23025265 0.075965829 4294901760
0.38895062 0.78878373 0.84443766 4294901760
0.12831947 0.45490369 0.3197363 4294901760
0.33466887 0.72770673 0.19206418 4294901760
0.55117124 0.42823297 0.9455626 4294901760
0.72698855 0.35111424 0.027812349 4294901760
0.82661492 0.82934201 0.74176335 4294901760
0.92791671 0.74866009 0.27449316 4294901760
0.83164603 0.51766545 0.72686702 4294901760
0.20391007 0.22703141 0.63870299 4294901760
0.082281761 0.45903409 0.74275452 4294901760
0.6410926 0.14501999 0.16539331 4294901760
0.244854 0.22483693 0.82266712 4294901760
0.84834415 0.71106791 0.53763384 4294901760
0.94808739 0.06838759 0.33921811 4294901760
0.84117579 0.48387325 0.88465089 4294901760
0.92143351 0.39345029 0.36121964 4294901760
0.29438266 0.46395791 0.15873259 4294901760
0.10366255 0.89046919 0.024781974 4294901760
0.94168323 0.95482248 0.60460186 4294901760
0.30620423 0.90445602 0.25234759 4294901760
0.25716099 0.83903718 0.092311688 4294901760
0.071540624 0.35574347 0.6930545 4294901760
0.76104677 0.60590863 0.014371188 4294901760
0.72510934 0.026600601 0.2101519 4294901760
0.80559313 0.45918739 0.46867535 4294901760
0.65587705 0.34190372 0.13598275 4294901760
0.35261282 0.036033161 0.56099415 4294901760
0.50840187 0.47376737 0.38817668 4294901760
0.98296374 0.18476926 0.92927963 4294901760
0.42902765 0.22297248 0.72357237 4294901760
0.91253138 0.89776075 0.47353649 4294901760
0.71136647 0.35288203 0.43929261 4294901760
0.039495062 0.11451168 0.01851923 4294901760
0.8834433 0.55022615 0.84245515 4294901760
0.61111647 0.54164052 0.019715808 4294901760
0.23709704 0.86672372 0.77286512 4294901760
0.97025126 0.47918105 0.012766472 4294901760
0.76061815 0.59388041 0.98541594 4294901760
0.42309618 0.11963177 0.71915901 4294901760
0.77737403 0.92712635 0.73716694 4294901760
0.79240841 0.40006647 0.84677035 4294901760
0.58855206 0.67237759 0.78668278 4294901760
0.71838266 0.48752567 0.44730783 4294901760
0.72862059 0.19462045 0.054985665 4294901760
0.4396219 0.30387542 0.1639705 4294901760
0.99073339 0.077167317 0.18072672 4294901760
0.15336919 0.07298854 0.24524683 4294901760
0.61554664 0.85738933 0.91910273 4294901760
0.0071593747 0.56768715 0.31058443 4294901760
0.37019134 0.10711812 0.22937214 4294901760
0.48537102 0.71628845 0.22304681 4294901760
0.013317472 0.65859139 0.60270727 4294901760
0.28036454 0.10838521 0.3782762 4294901760
0.47274661 0.52864289 0.98917753 4294901760
0.25241989 0.63860768 0.43727675 4294901760
0.57161933 0.92773068 0.012400223 4294901760
0.25733763 0.76350141 0.77648002 4294901760
0.19952664 0.0096357949 0.61994743 4294901760
0.90928125 0.84677976 0.31785789 4294901760
0.097780205 0.15915214 0.43325788 4294901760
0.59733808 0.13540708 0.48237568 4294901760
0.47506195 0.1364422 0.19591677 4294901760
0.84368348 0.80377883 0.99061722 4294901760
0.55779135 0.38588238 0.50115073 4294901760
0.30147618 0.11503094 0.70812756 4294901760
0.30098096 0.57332301 0.36950853 4294901760
0.46290591 0.28362802 0.38949481 4294901760
0.60801947 0.43238688 0.37050426 4294901760
0.56310946 0.50856781 0.40696129 4294901760
0.81854045 0.11978199 0.63829398 4294901760
0.75215983 0.32376042 0.60047984 4294901760
0.20950435 0.79617786 0.86396903 4294901760
0.39570159 0.74736607 0.54835445 4294901760
0.80335414 0.7296319 0.36235467 4294901760
0.64742506 0.87269396 0.91453254 4294901760
0.35994276 0.52888751 0.97645855 4294901760
0.28678122 0.68773019 0.35997126 4294901760
0.78692192 0.21315211 0.75277239 4294901760
0.43901744 0.76235521 0.91482025 4294901760
0.3036339 0.00222506 0.31225166 4294901760
0.78978705 0.67211944 0.57415205 4294901760
0.054963905 0.52120984 0.89626366 4294901760
0.47002879 0.97021282 0.25074935 4294901760
0.082336247 0.80388826 0.082172021 4294901760
0.076838084 0.41656786 0.70157409 4294901760
0.97244823 0.4991951 0.26388064 4294901760
0.10181225 0.99514604 0.84376824 4294901760
0.24838769 0.28068072 0.33940685 4294901760
0.2904309 0.9677639 0.20624094 4294901760
0.43778124 0.0445383 0.113162 4294901760
0.15283912 0.46014926 0.44104746 4294901760
0.18953493 0.99397594 0.30644521 4294901760
0.76554233 0.61841208 0.27991796 4294901760
0.071827576 0.21530005 0.43938839 4294901760
0.63823569 0.88093901 0.24222083 4294901760
0.65692896 0.8677209 0.23237972 4294901760
0.34616345 0.21017189 0.25113338 4294901760
0.11019427 0.80821681 0.42444542 4294901760
0.18851782 0.47929069 0.18486942 4294901760
0.9664169 0.23217955 0.011169377 4294901760
0.68522435 0.30879787 0.94228119 4294901760
0.10662106 0.7317791 0.91987193 4294901760
0.010619853 0.55176055 0.26914114 4294901760
0.66065758 0.63132697 0.85144514 4294901760
0.84912044 0.63493568 0.32509971 4294901760
0.7493605 0.9098829 0.36957666 4294901760
0.92838401 0.86624521 0.50675583 4294901760
0.90114743 0.53720915 0.59536833 4294901760
0.74440116 0.9123981 0.21060057 4294901760
0.5721361 0.34478381 0.31915256 4294901760
0.53544909 0.24253689 0.35868299 4294901760
0.58677018 0.04833984 0.41924176 4294901760
0.32803094 0.14439519 0.71971643 4294901760
0.28180182 0.19136667 0.92427939 4294901760
0.90112972 0.43088722 0.37702855 4294901760
0.82058942 0.47596055 0.09183494 4294901760
0.61128539 0.38420093 0.33592597 4294901760
0.30605447 0.18065311 0.20765147 4294901760
0.29895613 0.26713297 0.26021966 4294901760
0.4995217 0.32237899 0.62692869 4294901760
0.41298038 0.0057161786 0.66779882 4294901760
0.72342265 0.56068945 0.57228374 4294901760
0.20191427 0.84876627 0.97738391 4294901760
0.51124233 0.12174668 0.36688441 4294901760
0.97169131 0.87226689 0.93457758 4294901760
0.38473192 0.9985373 0.54448324 4294901760
0.12565042 0.63080019 0.46951225 4294901760
0.94557965 0.9772163 0.90115994 4294901760
0.43529257 0.12517779 0.90562981 4294901760
0.21968772 0.95342654 0.4409281 4294901760
0.51873964 0.57398009 0.80711144 4294901760
0.90771246 0.061043028 0.50442469 4294901760
0.011680883 0.61406779 0.64941996 4294901760
0.24891703 0.41047436 0.17559765 4294901760
0.012873052 0.94774985 0.54202628 4294901760
0.20060205 0.31361607 0.99574012 4294901760
0.69012141 0.12901334 0.83411306 4294901760
0.60604602 0.75174683 0.51955426 4294901760
0.043203827 0.052005868 0.49439481 4294901760
0.99020267 0.33547986 0.40316036 4294901760
0.88047326 0.72887534 0.21493377 4294901760
0.92406344 0.55404854 0.63283026 4294901760
0.083868787 0.98872322 0.59445751 4294901760
0.25456449 0.75654608 0.39898849 4294901760
0.79321879 0.17163764 0.011750658 4294901760
0.63657302 0.55682284 0.79424572 4294901760
0.77645928 0.035846636 0.26979312 4294901760
0.54580265 0.9112916 0.28586411 4294901760
0.11570182 0.97322601 0.87625211 4294901760
0.55105257 0.65437162 0.57399368 4294901760
0.79340512 0.11287219 0.14748617 4294901760
0.80332774 0.19674973 0.61168975 4294901760
0.83708173 0.76763982 0.29405668 4294901760
0.20908514 0.79546881 0.31854287 4294901760
0.4012166 0.93900561 0.53227127 4294901760
0.014348138 0.77832973 0.79456913 4294901760
0.36216074 0.77233511 0.59271473 4294901760
0.75881588 0.83954614 0.54391915 4294901760
0.56514144 0.039921228 0.94576073 4294901760
0.86377436 0.32616901 0.82555842 4294901760
0.49472696 0.40011957 0.90091485 4294901760
0.4451783 0.97098726 0.47010213 4294901760
0.22815046 0.81270897 0.34647813 4294901760
0.95015466 0.0080883941 0.67177564 4294901760
0.60936832 0.94681674 0.31554681 4294901760
0.99614453 0.92630345 0.53282648 4294901760
0.73990726 0.64962649 0.97472513 4294901760
0.1226662 0.75068259 0.021155657 4294901760
0.32602218 0.66849053 0.65510428 4294901760
0.41105741 0.49277553 0.39138973 4294901760
0.27775374 0.0056846747 0.98468769 4294901760
0.30908981 0.46760324 0.11353606 4294901760
0.6907118 0.84482151 0.68464714 4294901760
0.9035148 0.92516327 0.68124741 4294901760
0.48526365 0.61085749 0.74399763 4294901760
0.73077315 0.7611075 0.85757583 4294901760
0.13792869 0.038606159 0.55355626 4294901760
0.18931605 0.94010365 0.59673154 4294901760
0.40727505 0.16685295 0.48994029 4294901760
0.037505377 0.2921088 0.2159314 4294901760
0.29689702 0.54021335 0.020929899 4294901760
0.99437463 0.13356981 0.77803981 4294901760
0.82552117 0.091804266 0.43141776 4294901760
0.45656163 0.64205545 0.678289 4294901760
0.56234503 0.20812182 0.59431797 4294901760
0.3505595 0.4943859 0.072165951 4294901760
0.34487811 0.5857842 0.83435148 4294901760
0.72451657 0.41770783 0.87287116 4294901760
0.43934503 0.2332851 0.66449642 4294901760
0.55924416 0.9664489 0.75330848 4294901760
0.51212299 0.31876296 0.65093243 4294901760
0.89694929 0.83511311 0.30636692 4294901760
0.55796051 0.95196754 0.18054277 4294901760
0.82602012 0.84961557 0.12111069 4294901760
0.50777233 0.52467948 0.29040205 4294901760
0.67615575 0.78488171 0.043028206 4294901760
0.89326292 0.84468442 0.20426042 4294901760
0.06647566 0.19877365 0.7012921 4294901760
0.34802181 0.26788881 0.056665301 4294901760
0.27064118 0.37970698 0.27529427 4294901760
0.4905901 0.20020035 0.69746858 4294901760
0.85892326 0.74930471 0.3116819 4294901760
0.72096515 0.68346858 0.59752786 4294901760
0.11024044 0.40866819 0.80356842 4294901760
0.6086719 0.58044779 0.74610347 4294901760
0.4496454 0.75986785 0.97117412 4294901760
0.52767521 0.24436744 0.37192065 4294901760
0.33649722 0.43099263 0.41883326 4294901760
0.46323761 0.76503098 0.43695018 4294901760
0.66933501 0.89987051 0.15462787 4294901760
0.14706318 0.43420175 0.45203024 4294901760
0.32269222 0.98378533 0.9183622 4294901760
0.080441184 0.076628663 0.46121368 4294901760
0.46400076 0.028306369 0.92800975 4294901760
0.76137602 0.72781324 0.78647494 4294901760
0.87056142 0.48623899 0.022138599 4294901760
0.35246193 0.11097334 0.8142463 4294901760
0.80066031 0.018946055 0.02751887 4294901760
0.57354355 0.61921608 0.99817395 4294901760
0.74150378 0.19591573 0.35684368 4294901760
0.91286814 0.89917046 0.147709 4294901760
0.69516778 0.26085135 0.21842454 4294901760
0.79553378 0.36142233 0.32587051 4294901760
0.65773094 0.035273153 0.068054065 4294901760
0.2082687 0.24113506 0.78441703 4294901760
0.36460069 0.35802341 0.395457 4294901760
0.76713753 0.32098323 0.51813966 4294901760
0.68374729 0.59675843 0.83520466 4294901760
0.44006565 0.14505883 0.70043552 4294901760
0.20664425 0.53020579 0.23205359 4294901760
0.54653555 0.40772733 0.97938889 4294901760
0.13782504 0.46153438 0.6143496 4294901760
0.23863091 0.83179379 0.29780546 4294901760
0.55048609 0.16565873 0.854886 4294901760
0.048731048 0.610089 0.7389015 4294901760
0.43455705 0.85723311 0.24078253 4294901760
0.669303 0.27961114 0.37991458 4294901760
0.99563354 0.63055861 0.70121074 4294901760
0.33762237 0.90408462 0.87934446 4294901760
0.074609652 0.44246137 0.98782897 4294901760
0.38471186 0.61374879 0.9540863 4294901760
0.42487568 0.10511229 0.22618012 4294901760
0.40309331 0.47748911 0.13535175 4294901760
0.47177315 0.1513868 0.70457578 4294901760
0.16847999 0.49330416 0.50889534 4294901760
0.72494787 0.23881957 0.93339127 4294901760
0.36326474 0.31713977 0.81725115 4294901760
0.60076851 0.086518623 0.43902943 4294901760
0.40478587 0.97097397 0.49811155 4294901760
0.65500766 0.59042078 0.46074602 4294901760
0.49872851 0.84881878 0.13593841 4294901760
0.23921923 0.94412851 0.14598089 4294901760
0.65312463 0.093287438 0.44174287 4294901760
0.25864765 0.23235141 0.23563403 4294901760
0.39770323 0.44658563 0.66106182 4294901760
0.70561498 0.97331697 0.12041639 4294901760
0.88113952 0.066763967 0.36345008 4294901760
0.38923904 0.23389834 0.44585636 4294901760
0.11612958 0.092126258 0.77964085 4294901760
0.33338016 0.19372553 0.19863641 4294901760
0.80787915 0.53854972 0.4932259 4294901760
0.60892886 0.092939816 0.3313323 4294901760
0.48051 0.77264434 0.32066676 4294901760
0.6476928 0.15000956 0.64763182 4294901760
0.7300657 0.10055003 0.95603484 4294901760
0.28940818 0.69681799 0.64232689 4294901760
0.24122763 0.0081475275 0.9137696 4294901760
0.41120878 0.14179464 0.54470795 4294901760
0.85698444 0.97608382 0.58159381 4294901760
0.47133991 0.7347284 0.54126006 4294901760
0.33228981 0.61737484 0.31053245 4294901760
0.91257268 0.039703339 0.82548285 4294901760
0.86169314 0.79570997 0.92524636 4294901760
0.22956412 0.61603725 0.94076234 4294901760
0.32933894 0.54281336 0.60431945 4294901760
0.17578991 0.3679049 0.90248448 4294901760
0.69829381 0.15441428 0.51129967 4294901760
0.68135655 0.12344978 0.51828563 4294901760
0.31821769 0.23055403 0.54632199 4294901760
0.2722837 0.63982511 0.59017658 4294901760
0.45960033 0.82044369 0.95206136 4294901760
0.66451675 0.83915073 0.41452342 4294901760
0.069809608 0.38630652 0.41170388 4294901760
0.7032007 0.68451869 0.87887514 4294901760
0.57451779 0.11360709 0.71007025 4294901760
0.21724427 0.49647358 0.4155671 4294901760
0.14989723 0.76081693 0.88170046 4294901760
0.92140073 0.76224267 0.94383627 4294901760
0.040829998 0.41196504 0.71837729 4294901760
0.87231028 0.50553292 0.29402745 4294901760
0.84377927 0.9642368 0.64204353 4294901760
0.6305688 0.97424674 0.42807055 4294901760
0.33824986 0.28993741 0.97492713 4294901760
0.18298842 0.60741442 0.97977096 4294901760
0.022128625 0.14223269 0.48986933 4294901760
0.83366036 0.15007669 0.057751816 4294901760
0.98985565 0.24069867 0.39843854 4294901760
0.90447414 0.67922258 0.22886047 4294901760
0.87230736 0.063707903 0.28956261 4294901760
0.99372458 0.79090041 0.1031333 4294901760
0.48453501 0.25141853 0.33529758 4294901760
0.69563222 0.34035367 0.37185591 4294901760
0.69757038 0.17014621 0.68324333 4294901760
0.11186595 0.30147287 0.62381446 4294901760
0.62592828 0.5254491 0.57377076 4294901760
0.16171837 0.88994056 0.17479032 4294901760
0.063503884 0.56627727 0.080620147 4294901760
0.72047299 0.15520306 0.57746691 4294901760
0.41848001 0.28862929 0.71322775 4294901760
0.29776236 0.61815017 0.61774313 4294901760
0.53795284 0.10347266 0.083673373 4294901760
0.3041504 0.60796744 0.30233988 4294901760
0.34706783 0.053787854 0.01462513 4294901760
0.56193262 0.85702258 0.88963598 4294901760
0.67344415 0.41363847 0.8127178 4294901760
0.94316232 0.86681563 0.88017517 4294901760
0.99664789 0.61146164 0.094164237 4294901760
0.31423384 0.94426125 0.26988846 4294901760
0.76297092 0.51956207 0.95287818 4294901760
0.63229197 0.28911352 0.38670424 4294901760
0.62792927 0.77145684 0.0055442778 4294901760
0.61363584 0.573569 0.089305975 4294901760
0.36720935 0.43609741 0.25716078 4294901760
0.92971098 0.32691771 0.88157505 4294901760
0.12305532 0.27210689 0.39373907 4294901760
0.76024413 0.11923265 0.92873657 4294901760
0.47767237 0.23727685 0.46506977 4294901760
0.38448322 0.26399502 0.074145116 4294901760
0.52126753 0.7404108 0.42978379 4294901760
0.86898893 0.13076536 0.79761487 4294901760
0.38461354 0.85389513 0.63005656 4294901760
0.72762978 0.81422478 0.76940835 4294901760
0.17164576 0.6200974 0.38265538 4294901760
0.35025078 0.50430757 0.85611135 4294901760
0.77929366 0.71939933 0.83659059 4294901760
0.68422353 0.91417414 0.3910968 4294901760
0.27209276 0.79862303 0.37347519 4294901760
0.21187486 0.91008151 0.61252981 4294901760
0.58692801 0.31347919 0.71154732 4294901760
0.18026111 0.41632071 0.1021983 4294901760
0.6471011 0.46457329 0.0045137266 4294901760
0.69558901 0.9814766 0.83710796 4294901760
0.2580198 0.55463064 0.33506352 4294901760
0.29646283 0.55038226 0.43872768 4294901760
0.62761343 0.26348215 0.55948108 4294901760
0.37767446 0.54651541 0.76050162 4294901760
0.03197116 0.16605729 0.41139176 4294901760
0.97096294 0.47784865 0.76578718 4294901760
0.28433552 0.12886953 0.0031459858 4294901760
0.26725566 0.2932263 0.93011522 4294901760
0.89353341 0.53714055 0.28908521 4294901760
0.88143003 0.55301458 0.80452186 4294901760
0.5559805 0.073231287 0.73693866 4294901760
0.57950324 0.68813372 0.33548811 4294901760
0.64940006 0.80910444 0.4298535 4294901760
0.32962909 0.017278589 0.98230857 4294901760
0.17589651 0.68373269 0.73958361 4294901760
0.024424201 0.45084012 0.25890216 4294901760
0.0047274665 0.10343088 0.088904157 4294901760
0.73126268 0.65311384 0.80084836 4294901760
0.037809078 0.40459529 0.3889558 4294901760
0.82157701 0.24587174 0.22605839 4294901760
0.67358673 0.85578078 0.21713334 4294901760
0.24793296 0.97248822 0.62504989 4294901760
0.20061646 0.23064736 0.16712663 4294901760
0.59854054 0.10013156 0.35836399 4294901760
0.30676314 0.56711847 0.17434469 4294901760
0.11531787 0.81080848 0.072654344 4294901760
0.57013887 0.73331732 0.34071091 4294901760
0.035079911 0.74672461 0.44348973 4294901760
0.49940684 0.71048224 0.14338028 4294901760
0.11336488 0.88338584 0.86584663 4294901760
0.29122016 0.097678423 0.18583617 4294901760
0.53939903 0.54562813 0.84126699 4294901760
0.69425529 0.075069591 0.95507532 4294901760
0.19673507 0.20431349 0.73903447 4294901760
0.73190504 0.21563387 0.36608303 4294901760
0.18521151 0.057473563 0.71155351 4294901760
0.19597362 0.27806753 0.081476174 4294901760
0.53721482 0.17607965 0.66486263 4294901760
0.4477686 0.38322821 0.50952524 4294901760
0.028690651 0.6077984 0.54042351 4294901760
0.049593806 0.21100484 0.079256676 4294901760
0.64536148 0.62673575 0.95902574 4294901760
0.7313199 0.65893799 0.30718362 4294901760
0.32478297 0.1227829 0.51816189 4294901760
0.80076224 0.082399212 0.92209345 4294901760
0.32498574 0.87016207 0.67416877 4294901760
0.5559904 0.84329069 0.116282 4294901760
0.80430692 0.71670419 0.078811556 4294901760
0.067822985 0.23573703 0.7835018 4294901760
0.55851048 0.20223467 0.77540904 4294901760
0.12637612 0.94725662 0.21225305 4294901760
0.83528906 0.56689036 0.11568502 4294901760
0.42555165 0.76341486 0.12479348 4294901760
0.4229424 0.54502207 0.79925078 4294901760
0.21455626 0.45991257 0.86899686 4294901760
0.18787752 0.21648622 0.084553331 4294901760
0.7933681 0.74861026 0.82013947 4294901760
0.87263542 0.91862828 0.47884887 4294901760
0.23792988 0.46813631 0.70772278 4294901760
0.255983 0.21336971 0.98870939 4294901760
0.5295803 0.29982671 0.16719769 4294901760
0.92578799 0.5884487 0.69193 4294901760
0.61010665 0.012938375 0.63734233 4294901760
0.96849614 0.78296238 0.99167043 4294901760
0.68214142 0.3132138 0.51723057 4294901760
0.6337561 0.39089748 0.20403476 4294901760
0.077235527 0.1073805 0.12522726 4294901760
0.79260409 0.58859855 0.061151579 4294901760
0.9985618 0.14027531 0.5488292 4294901760
0.70148498 0.40694544 0.37584904 4294901760
0.21700184 0.4622038 0.87668741 4294901760
0.043816056 0.97325563 0.20479999 4294901760
0.3715004 0.5951798 0.04152358 4294901760
0.5865047 0.8489396 0.76460433 4294901760
0.29243171 0.87432921 0.079618156 4294901760
0.32741523 0.62474245 0.18282413 4294901760
0.59175181 0.85253531 0.87631923 4294901760
0.61233866 0.64326257 0.77277344 4294901760
0.97617471 0.87803447 0.35000432 4294901760
0.91389644 0.65814698 0.75951016 4294901760
0.87063658 0.98331028 0.27776811 4294901760
0.091878608 0.76275146 0.3669759 4294901760
0.80856055 0.0095898826 0.52551985 4294901760
0.35354578 0.87400347 0.45587635 4294901760
0.8876186 0.30328116 0.99168217 4294901760
0.1160639 0.34928551 0.5875169 4294901760
0.99807239 0.64585704 0.79770803 4294901760
0.33901459 0.89062941 0.72959048 4294901760
0.56575787 0.99295866 0.060020752 4294901760
0.47996196 0.76789653 0.90182877 4294901760
0.99268156 0.68880951 0.77213538 4294901760
0.004031613 0.10235202 0.14810637 4294901760
0.69931453 0.89183813 0.27929381 4294901760
0.097484216 0.2917999 0.024135882 4294901760
0.13007277 0.42948067 0.31886682 4294901760
0.12862247 0.87004888 0.36974391 4294901760
0.27588436 0.0027757669 0.21949379 4294901760
0.79820067 0.021714214 0.61818588 4294901760
0.20949842 0.71709865 0.74363869 4294901760
0.036208242 0.43744549 0.21219301 4294901760
0.68802124 0.85227311 0.98223042 4294901760
0.55043834 0.43971914 0.28698325 4294901760
0.66016114 0.022435864 0.21511638 4294901760
0.629008 0.30378246 0.50198072 4294901760
0.27724934 0.61735845 0.83208716 4294901760
0.050855767 0.42856053 0.41112992 4294901760
0.076684825 0.63307142 0.91487241 4294901760
0.1925754 0.28860191 0.68538213 4294901760
0.16718921 0.67528373 0.39771312 4294901760
0.95111859 0.011944151 0.65020245 4294901760
0.45739418 0.21921797 0.24728116 4294901760
0.19935234 0.63437778 0.60586429 4294901760
0.5235765 0.016043322 0.020310158 4294901760
0.96656322 0.036244906 0.45313683 4294901760
0.13538773 0.37602225 0.86711979 4294901760
0.549586 0.59923708 0.32682127 4294901760
0.10379192 0.53992641 0.084286995 4294901760
0.5819878 0.88639379 0.85691726 4294901760
0.040178023 0.64082736 0.029073928 4294901760
0.5000459 0.2880007 0.74313623 4294901760
0.55244613 0.30878314 0.69371742 4294901760
0.99173665 0.67901653 0.19030797 4294901760
0.66287243 0.029382084 0.52052563 4294901760
0.73734647 0.7976833 0.93950051 4294901760
0.95848304 0.019939257 0.77564639 4294901760
0.34679446 0.5357852 0.31397438 4294901760
0.46389437 0.52900755 0.93414843 4294901760
0.51211113 0.31944707 0.091494046 4294901760
0.50700182 0.3969135 0.82541132 4294901760
0.0058748093 0.21113358 0.49146476 4294901760
0.40719062 0.52141482 0.93766356 4294901760
0.012789603 0.14749515 0.79240572 4294901760
0.064520516 0.28218225 0.10246677 4294901760
0.40368438 0.074548356 0.85184824 4294901760
0.26262566 0.56882906 0.21808547 4294901760
0.90145952 0.43655676 0.99940234 4294901760
0.70815116 0.23729515 0.55973577 4294901760
0.0053690681 0.23099704 0.34412655 4294901760
0.80864275 0.74881548 0.24533582 4294901760
0.86055756 0.34619385 0.72853899 4294901760
0.95441604 0.6430673 0.025399303 4294901760
0.042046137 0.82813632 0.87631136 4294901760
0.54561716 0.22308089 0.3520833 4294901760
0.77037996 0.71273315 0.32338065 4294901760
0.67903137 0.43777889 0.91518426 4294901760
0.65266198 0.081799872 0.88840353 4294901760
0.47283822 0.37331793 0.42093495 4294901760
0.22075203 0.39040822 0.076873027 4294901760
0.5474422 0.37682471 0.92822289 4294901760
0.25323281 0.89134836 0.13985202 4294901760
0.69374144 0.1773943 0.52368027 4294901760
0.42949465 0.60547 0.36284614 4294901760
0.95208853 0.531295 0.36215684 4294901760
0.0094240615 0.63356102 0.54885107 4294901760
0.9218809 0.14787489 0.99365294 4294901760
0.67701131 0.8795951 0.73285133 4294901760
0.93008029 0.16872939 0.19442382 4294901760
0.050051924 0.35865095 0.072933808 4294901760
0.72527945 0.31767502 0.34887561 4294901760
0.10258088 0.44440526 0.77997398 4294901760
0.27497378 0.58001912 0.5664323 4294901760
0.42597714 0.59964758 0.79515249 4294901760
0.86911076 0.70263374 0.089928918 4294901760
0.57973927 0.034735888 0.0065452126 4294901760
0.99606913 0.60988063 0.99195093 4294901760
0.054369163 0.84327197 0.25326192 4294901760
0.8295691 0.61711043 0.21168886 4294901760
0.94648224 0.3286899 0.85253799 4294901760
0.037665527 0.17183203 0.44519097 4294901760
0.33688211 0.75396234 0.5969975 4294901760
0.64789146 0.96212846 0.032789655 4294901760
0.19964328 0.56371158 0.6163165 4294901760
0.55220616 0.69730419 0.2055748 4294901760
0.54031545 0.45466998 0.97845805 4294901760
0.75912315 0.79050153 0.56307262 4294901760
0.43161297 0.82388955 0.29009899 4294901760
0.71521872 0.30706003 0.030017102 4294901760
0.20711608 0.11615831 0.60113007 4294901760
0.53576231 0.012932639 0.4578827 4294901760
0.81811482 0.88090652 0.98563582 4294901760
0.95459044 0.40554708 0.33482215 4294901760
0.53526348 0.46458364 0.27947074 4294901760
0.035004273 0.36703962 0.14551193 4294901760
0.56466818 0.85358435 0.40829772 4294901760
0.62063295 0.35005543 0.8622582 4294901760
0.54877168 0.086359255 0.83048809 4294901760
0.065848328 0.78417701 0.33596778 4294901760
0.56862867 0.080854028 0.39771968 4294901760
0.51103157 0.61667889 0.22746892 4294901760
0.2926715 0.80886739 0.53711754 4294901760
0.32007891 0.42079392 0.73120111 4294901760
0.42994693 0.85596961 0.27476966 4294901760
0.53252363 0.38927522 0.49413761 4294901760
0.36488014 0.62657446 0.38128915 4294901760
0.5636943 0.69337451 0.26633763 4294901760
0.066987954 0.59186614 0.37037745 4294901760
0.51791066 0.92738235 0.59841394 4294901760
0.83964151 0.0090165921 0.29103208 4294901760
0.1308957 0.89066809 0.66004688 4294901760
0.76782322 0.65298659 0.67984945 4294901760
0.42215595 0.325728 0.24842086 4294901760
0.32252482 0.74377018 0.36923027 4294901760
0.56097347 0.15666778 0.49494487 4294901760
0.52160043 0.46997023 0.0075301249 4294901760
0.91640556 0.35867882 0.71723497 4294901760
0.11894359 0.17556539 0.53735524 4294901760
0.077756502 0.74694681 0.90846914 4294901760
0.52568734 0.12070296 0.66742128 4294901760
0.97701257 0.98833424 0.87305266 4294901760
0.6731239 0.91807997 0.9627648 4294901760
0.12225442 0.6184293 0.92191088 4294901760
0.93844873 0.43179691 0.64497679 4294901760
0.28587154 0.11445669 0.0056689521 4294901760
0.43533567 0.9252907 0.032422114 4294901760
0.32146671 0.5172891 0.59124041 4294901760
0.63667071 0.89256752 0.71476698 4294901760
0.65156674 0.1598475 0.34090108 4294901760
0.46048558 0.073196121 0.47887361 4294901760
0.69723988 0.38691628 0.99015933 4294901760
0.51568508 0.26795298 0.38954413 4294901760
0.08993452 0.32665578 0.072871163 4294901760
0.73926163 0.0050077559 0.57507753 4294901760
0.1561695 0.606233 0.56876075 4294901760
0.29717457 0.89743048 0.64651716 4294901760
0.6450572 0.20953321 0.67384648 4294901760
0.27200907 0.13131282 0.035184886 4294901760
0.29863533 0.3950229 0.26442382 4294901760
0.4624019 0.82475954 0.82151043 4294901760
0.38432425 0.71508205 0.39394102 4294901760
0.55262268 0.74731356 0.24891645 4294901760
0.16214968 0.04015157 0.81688857 4294901760
0.98813772 0.59709638 0.28744575 4294901760
0.69601172 0.64697665 0.7129451 4294901760
0.86078894 0.83735812 0.088489145 4294901760
0.60420185 0.62616181 0.14271069 4294901760
0.74802929 0.32225034 0.7625851 4294901760
0.99331713 0.1431406 0.42323431 4294901760
0.47154832 0.45131508 0.42874199 4294901760
0.44961861 0.10024478 0.49441287 4294901760
0.23427749 0.14517146 0.47355372 4294901760
0.49741092 0.77104527 0.47016898 4294901760
0.1081028 0.19193785 0.19934513 4294901760
0.13368101 0.57345432 0.24978128 4294901760
0.20381482 0.34766868 0.96026504 4294901760
0.57075775 0.63360006 0.1447209 4294901760
0.28396177 0.4777185 0.11396766 4294901760
0.64468825 0.97912484 0.50712174 4294901760
0.55459636 0.7906813 0.46175471 4294901760
0.94203752 0.77123219 0.70792013 4294901760
0.58914328 0.19040997 0.4541994 4294901760
0.24299432 0.98743951 0.96802074 4294901760
0.42472044 0.06482131 0.44046924 4294901760
0.23289603 0.1036763 0.73943484 4294901760
0.11998551 0.40125152 0.29253995 4294901760
0.055412695 0.027076416 0.93750089 4294901760
0.85405493 0.35169819 0.67492282 4294901760
