# .PCD v0.7 - Point Cloud Data file format
VERSION 0.7
FIELDS x y z rgb
SIZE 4 4 4 4
TYPE F F F U
COUNT 1 1 1 1
WIDTH 1086
HEIGHT 1
VIEWPOINT 0 0 0 1 0 0 0
POINTS 1086
DATA ascii
0.54755336 0.39939958 0.52984595 4294901760
0.16063638 0.59565896 0.72315955 4294901760
0.015996084 0.60766655 0.76459801 4294901760
0.28668255 0.95627159 0.95830953 4294901760
0.80347985 0.060813259 0.29678747 4294901760
0.47014999 0.86200106 0.37459064 4294901760
0.63670826 0.76079899 0.91732532 4294901760
0.67941713 0.061225578 0.73954111 4294901760
0.088085927 0.71245199 0.29571897 4294901760
0.44450551 0.69530892 0.31748712 4294901760
0.20535581 0.57737947 0.30677682 4294901760
0.039051645 0.82926738 0.1372764 4294901760
0.97796243 0.91641676 0.46346867 4294901760
0.017312303 0.31315172 0.70264077 4294901760
0.50430995 0.33033234 0.48212686 4294901760
0.40223429 0.18567571 0.16650869 4294901760
0.36238697 0.27662235 0.27813292 4294901760
0.34371799 0.70300633 0.19005011 4294901760
0.52081662 0.33952945 0.95363951 4294901760
0.82337761 0.82386518 0.24529144 4294901760
0.96154147 0.71334654 0.3063654 4294901760
0.97887617 0.10579149 0.78967404 4294901760
0.1311526 0.76612437 0.24285591 4294901760
0.42424995 0.23682101 0.23817722 4294901760
0.76768261 0.48070949 0.72931832 4294901760
0.69933772 0.89531243 0.63409323 4294901760
0.49018598 0.18621537 0.60737622 4294901760
0.12387288 0.57389867 0.39011115 4294901760
0.21778944 0.80970377 0.1573028 4294901760
0.0036825193 0.59498119 0.91294998 4294901760
0.48590595 0.72113657 0.94464016 4294901760
0.47022799 0.31620395 0.95079637 4294901760
0.85852414 0.94263184 0.10069808 4294901760
0.9615134 0.11982433 0.15028968 4294901760
0.30543977 0.0058161523 0.24320297 4294901760
0.65278661 0.32814956 0.38879976 4294901760
0.35626206 0.40470412 0.44479424 4294901760
0.96575201 0.86304229 0.50121891 4294901760
0.82998228 0.7287336 0.87475032 4294901760
0.96795475 0.75894076 0.33623523 4294901760
0.97581375 0.9438175 0.39735398 4294901760
0.84955496 0.47222811 0.024833111 4294901760
0.88892138 0.6134274 0.24024749 4294901760
0.096370921 0.019665429 0.99230307 4294901760
0.32074299 0.1019282 0.9470824 4294901760
0.18532363 0.85536575 0.8095271 4294901760
0.67964864 0.66108 0.35654071 4294901760
0.46366304 0.28674746 0.73629731 4294901760
0.00087935466 0.13121428 0.065771274 4294901760
0.77780944 0.93398565 0.65751827 4294901760
0.80549234 0.034213595 0.92442358 4294901760
0.63620484 0.67309457 0.061512221 4294901760
0.9378224 0.67751133 0.01387432 4294901760
0.21881187 0.5327459 0.38630071 4294901760
0.85282528 0.044291072 0.74758053 4294901760
0.07377813 0.46897325 0.83272809 4294901760
0.70457387 0.11485377 0.27634102 4294901760
0.34200779 0.40222391 0.80967706 4294901760
0.97502148 0.9590649 0.99940747 4294901760
0.89904714 0.44270641 0.1014176 4294901760
0.66298646 0.015055416 0.82534117 4294901760
0.90215373 0.95412397 0.58009279 4294901760
0.10375328 0.62596029 0.064074121 4294901760
0.87367719 0.57078904 0.3795974 4294901760
0.18421318 0.58523244 0.8354646 4294901760
0.063458271 0.29324615 0.77176988 4294901760
0.86472249 0.41987997 0.761783 4294901760
0.2094917 0.19557506 0.15674622 4294901760
0.3001273 0.32282007 0.74873638 4294901760
0.18887135 0.57274264 0.94472229 4294901760
0.55022728 0.1867663 0.20219658 4294901760
0.23466043 0.082797192 0.53402239 4294901760
0.042687997 0.64503825 0.35981086 4294901760
0.588732 0.51731473 0.70232147 4294901760
0.66486222 0.44525734 0.24530542 4294901760
0.010857424 0.76652247 0.28569967 4294901760
0.28661197 0.52434164 0.44744411 4294901760
0.45214534 0.50931883 0.44630858 4294901760
0.66793185 0.98683804 0.27715337 4294901760
0.43464735 0.74374551 0.86923754 4294901760
0.055237595 0.8809365 0.8768245 4294901760
0.82837892 0.15507832 0.6099081 4294901760
0.51346374 0.97317743 0.9266758 4294901760
0.5820117 0.44066343 0.84617817 4294901760
0.27271509 0.67452037 0.20899962 4294901760
0.21653704 0.035738535 0.4723883 4294901760
0.69762897 0.97817218 0.34034199 4294901760
0.63779593 0.90454608 0.16779909 4294901760
0.33925089 0.36344373 0.76520151 4294901760
0.28715926 0.47179449 0.30621654 4294901760
0.54873031 0.84358281 0.13254221 4294901760
0.39504907 0.24794683 0.67408442 4294901760
0.086000241 0.59503108 0.1103378 4294901760
0.79700369 0.42928496 0.29968411 4294901760
0.53994387 0.8299818 0.96336156 4294901760
0.63803434 0.36885267 0.65909338 4294901760
0.27882195 0.34103534 0.60084808 4294901760
0.95935851 0.013198685 0.068711117 4294901760
0.92267948 0.53000605 0.43209669 4294901760
0.55665797 0.82663095 0.2361021 4294901760
0.84838045 0.82459515 0.92789239 4294901760
0.99461973 0.40224147 0.17514607 4294901760
0.8866083 0.18653819 0.19622467 4294901760
0.36199924 0.16988294 0.0026592193 4294901760
0.24718568 0.026465751 0.15512347 4294901760
0.65362626 0.24786547 0.64977223 4294901760
0.9321081 0.76259559 0.88885713 4294901760
0.87171 0.034399666 0.34408858 4294901760
0.44372943 0.92286456 0.82834303 4294901760
0.90669644 0.2274341 0.47062054 4294901760
0.19953014 0.1694116 0.53788531 4294901760
0.18871696 0.26861304 0.61372799 4294901760
0.080640487 0.47013101 0.52089894 4294901760
0.21381558 0.2413411 0.55097657 4294901760
0.65036064 0.073451832 0.56704885 4294901760
0.38207659 0.87737483 0.45914176 4294901760
0.053733908 0.50630361 0.27209923 4294901760
0.99789947 0.66205597 0.50823951 4294901760
0.99032384 0.99828249 0.4878183 4294901760
0.13706391 0.5431965 0.88414019 4294901760
0.78132355 0.54067731 0.81161821 4294901760
0.99668401 0.16213875 0.75310284 4294901760
0.96011591 0.31701463 0.059303839 4294901760
0.74320692 0.36205146 0.80509186 4294901760
0.14137465 0.46506986 0.98960394 4294901760
0.94753063 0.20148048 0.78866333 4294901760
0.71960342 0.16082865 0.37163681 4294901760
0.40363193 0.43763229 0.14517561 4294901760
0.59024912 0.32322901 0.37848905 4294901760
0.18307771 0.49814862 0.91277009 4294901760
0.064682931 0.14943516 0.13958225 4294901760
0.41062415 0.939888 0.65710837 4294901760
0.82032746 0.16889477 0.77830595 4294901760
0.98733163 0.77924538 0.27834883 4294901760
0.99660218 0.83887219 0.32511368 4294901760
0.33075434 0.34076571 0.20230426 4294901760
0.59505767 0.40772712 0.83151215 4294901760
0.23624404 0.021360423 0.043830987 4294901760
0.0043405704 0.17695585 0.84059113 4294901760
0.88453037 0.47419718 0.19195624 4294901760
0.23495966 0.70314771 0.70170122 4294901760
0.82508403 0.90183312 0.0026066559 4294901760
0.021154784 0.74829608 0.29126251 4294901760
0.03502275 0.70903319 0.62044764 4294901760
0.85064226 0.45982605 0.1604771 4294901760
0.82821137 0.30070785 0.90027982 4294901760
0.76713347 0.58598268 0.096372716 4294901760
0.39675984 0.24361259 0.10086084 4294901760
0.51782525 0.40170458 0.0086035682 4294901760
0.38110465 0.48562366 0.56128657 4294901760
0.3664934 0.66469294 0.3665818 4294901760
0.67206675 0.27990514 0.36190376 4294901760
0.87018484 0.90326107 0.19191039 4294901760
0.014489403 0.55710983 0.5510633 4294901760
0.82560748 0.5242011 0.49480018 4294901760
0.5430609 0.80500662 0.46909386 4294901760
0.78525531 0.68641025 0.58379304 4294901760
0.84466189 0.18196917 0.87816125 4294901760
0.55748427 0.3469784 0.83007193 4294901760
0.83039808 0.62057889 0.67608213 4294901760
0.48959249 0.5315432 0.77786815 4294901760
0.56833202 0.96538693 0.99509001 4294901760
0.36383459 0.4931379 0.73618799 4294901760
0.82235211 0.97162426 0.96537912 4294901760
0.87291515 0.26446956 0.066759214 4294901760
0.41885495 0.51334012 0.11570682 4294901760
0.7342419 0.86814266 0.42982495 4294901760
0.48638502 0.49862915 0.88635796 4294901760
0.52887613 0.42757136 0.43499446 4294901760
0.20406762 0.091862097 0.015770363 4294901760
0.50542116 0.81881887 0.26123589 4294901760
0.52342629 0.74563801 0.36355639 4294901760
0.28643659 0.03416485 0.60511184 4294901760
0.43105233 0.92064327 0.39546406 4294901760
0.86153299 0.27958524 0.15765631 4294901760
0.20850667 0.10415949 0.1391743 4294901760
0.54957521 0.32532537 0.52413195 4294901760
0.085085459 0.58335841 0.078567833 4294901760
0.99538976 0.298857 0.78436577 4294901760
0.092675783 0.15260661 0.83469868 4294901760
0.42483869 0.89349478 0.04272129 4294901760
0.6710071 0.43009064 0.61791593 4294901760
0.69280899 0.32008156 0.057619289 4294901760
0.17368062 0.85657042 0.71746975 4294901760
0.42014265 0.31076297 0.52029669 4294901760
0.30280665 0.85069674 0.64625311 4294901760
0.70678061 0.99545425 0.074827679 4294901760
0.98405743 0.43237945 0.14226323 4294901760
0.034605112 0.13610113 0.6596173 4294901760
0.48812693 0.75861692 0.016039157 4294901760
0.079754643 0.82671672 0.27918404 4294901760
0.19681931 0.13176759 0.26126555 4294901760
0.58874446 0.52988511 0.006977234 4294901760
0.56959105 0.78742433 0.33013812 4294901760
0.98716247 0.58007765 0.25086734 4294901760
0.85193086 0.30050763 0.91932678 4294901760
0.043592751 0.66831857 0.5792495 4294901760
0.87425977 0.0972993 0.13941132 4294901760
0.083547778 0.59357178 0.21704675 4294901760
0.27587402 0.61118555 0.83501208 4294901760
0.3822951 0.57922536 0.80351907 4294901760
0.34764159 0.32001895 0.59323585 4294901760
0.71685255 0.48570988 0.07625106 4294901760
0.75558144 0.37293577 0.28953084 4294901760
0.8644312 0.10972271 0.92442656 4294901760
0.18295228 0.43570808 0.42161104 4294901760
0.31004676 0.027600639 0.74538487 4294901760
0.41507784 0.92694676 0.060915634 4294901760
0.11234482 0.68684065 0.22628541 4294901760
0.34344435 0.89846629 0.016076325 4294901760
0.27289402 0.38661945 0.38748956 4294901760
0.5745185 0.12804165 0.46058589 4294901760
0.39999455 0.31759176 0.96931827 4294901760
0.33110273 0.65201873 0.34801677 4294901760
0.81593585 0.21388893 0.45187545 4294901760
0.73163337 0.57840431 0.58124018 4294901760
0.05952495 0.54015005 0.1431815 4294901760
0.56599212 0.13193247 0.19221812 4294901760
0.30105683 0.13805406 0.76206118 4294901760
0.48185706 0.44511724 0.97676075 4294901760
0.14409392 0.31650525 0.30731535 4294901760
0.69595683 0.28260529 0.12188321 4294901760
0.33331558 0.68676144 0.31730333 4294901760
0.48953813 0.17968862 0.78912282 4294901760
0.60681224 0.48729938 0.4424932 4294901760
0.60887051 0.97091675 0.56776363 4294901760
0.60877258 0.97168374 0.59556878 4294901760
0.29425699 0.46843436 0.081864953 4294901760
0.098419338 0.24241351 0.0048365113 4294901760
0.50766152 0.058572669 0.2115888 4294901760
0.60540241 0.83111697 0.40700901 4294901760
0.29276049 0.60615981 0.64503545 4294901760
0.93280828 0.20228276 0.29015893 4294901760
0.97389418 0.64276361 0.61746711 4294901760
0.0053996323 0.010893331 0.21419393 4294901760
0.64983165 0.7779485 0.2894114 4294901760
0.47412542 0.30192286 0.65702498 4294901760
0.86676282 0.62892085 0.26983288 4294901760
0.38753328 0.82144725 0.71350521 4294901760
0.49655858 0.55869973 0.66693145 4294901760
0.83693117 0.82506311 0.31942704 4294901760
0.35142046 0.75227284 0.22278461 4294901760
0.27712569 0.019451503 0.53506684 4294901760
0.96830088 0.16887788 0.12438667 4294901760
0.73663741 0.85643291 0.24450761 4294901760
0.95861411 0.8516795 0.96863776 4294901760
0.035548665 0.26901793 0.89243025 4294901760
0.13319531 0.05526286 0.49781719 4294901760
0.32684752 0.34543985 0.92840928 4294901760
0.39529312 0.8098613 0.43711734 4294901760
0.25672448 0.94433635 0.97524154 4294901760
0.625673 0.82844561 0.89253414 4294901760
0.3202107 0.32255405 0.0699564 4294901760
0.93140113 0.32576671 0.71360666 4294901760
0.32022744 0.75438911 0.77839047 4294901760
0.73680323 0.17910098 0.26373729 4294901760
0.89624274 0.38232401 0.96326745 4294901760
0.71925128 0.0091096275 0.17855774 4294901760
0.734097 0.3707045 0.5198347 4294901760
0.40078253 0.70226514 0.71300095 4294901760
0.68649447 0.55359447 0.35666448 4294901760
0.99014682 0.34269375 0.81778044 4294901760
0.16950428 0.64671528 0.29634306 4294901760
0.79990757 0.71202177 0.67232925 4294901760
0.51662725 0.033838633 0.6717962 4294901760
0.67051542 0.54549754 0.30112007 4294901760
0.23530675 0.15853712 0.62687331 4294901760
0.080107257 0.90433753 0.64918858 4294901760
0.85023022 0.29879814 0.073458038 4294901760
0.37670377 0.37645122 0.8756718 4294901760
0.64415556 0.70855039 0.48132613 4294901760
0.39539236 0.98477513 0.23793465 4294901760
0.46645623 0.64950633 0.24410455 4294901760
0.42785528 0.18263885 0.92525923 4294901760
0.83915561 0.73300469 0.3322629 4294901760
0.17764251 0.21599032 0.82849199 4294901760
0.75106901 0.25080571 0.49446088 4294901760
0.75805086 0.52814728 0.4851799 4294901760
0.70597237 0.84266192 0.79980755 4294901760
0.46484995 0.15503894 0.51618594 4294901760
0.51776183 0.76986724 0.23847245 4294901760
0.68445617 0.50267458 0.95627004 4294901760
0.89244014 0.78431422 0.23182225 4294901760
0.96517116 0.08103238 0.95327556 4294901760
0.29467058 0.18704668 0.29959109 4294901760
0.040997576 0.53761578 0.79083544 4294901760
0.15691921 0.4341104 0.11579418 4294901760
0.24760297 0.26732805 0.32487261 4294901760
0.86650503 0.23174402 0.12273263 4294901760
0.61243933 0.087175794 0.82689226 4294901760
0.36082703 0.42554513 0.092494175 4294901760
0.47751629 0.088393927 0.56173539 4294901760
0.87050062 0.44568753 0.89167076 4294901760
0.74028838 0.78068089 0.53856319 4294901760
0.32332683 0.011317058 0.30092549 4294901760
0.14295001 0.53410643 0.36182922 4294901760
0.3767271 0.43932664 0.45344374 4294901760
0.64343327 0.092215165 0.91721493 4294901760
0.9288069 0.21636169 0.41319114 4294901760
0.98155743 0.54263133 0.88911873 4294901760
0.10691867 0.3675366 0.019395333 4294901760
0.54007149 0.39959005 0.73151243 4294901760
0.80529255 0.7913987 0.59168601 4294901760
0.68247885 0.57080323 0.94765013 4294901760
0.4753612 0.39348456 0.19430301 4294901760
0.98322558 0.54960948 0.37636277 4294901760
0.42260748 0.48661631 0.31211558 4294901760
0.18666431 0.23976284 0.44358414 4294901760
0.66229457 0.53964138 0.52248287 4294901760
0.84028065 0.84060562 0.87901515 4294901760
0.43276009 0.49931753 0.85578376 4294901760
0.63513297 0.9336639 0.43351653 4294901760
0.24295306 0.77224427 0.64056414 4294901760
0.0073044756 0.95485556 0.6803661 4294901760
0.41499659 0.71901524 0.55509979 4294901760
0.24843493 0.79352981 0.60857671 4294901760
0.38491151 0.61730731 0.31086046 4294901760
0.33307046 0.70936459 0.88479024 4294901760
0.39102414 0.31010407 0.26343849 4294901760
0.20958875 0.2603893 0.53233945 4294901760
0.77136564 0.7631644 0.70969433 4294901760
0.89396757 0.79738832 0.65981442 4294901760
0.14514098 0.67350966 0.17865135 4294901760
0.58808738 0.066440336 0.44653624 4294901760
0.72064447 0.49440816 0.6996966 4294901760
0.98617119 0.84646297 0.44853169 4294901760
0.61278582 0.13000625 0.58222085 4294901760
0.41843566 0.52281004 0.51513982 4294901760
0.82960695 0.0083083762 0.30316043 4294901760
0.30491012 0.58652586 0.53603971 4294901760
0.67090225 0.74326664 0.88087571 4294901760
0.3155385 0.14370793 0.42088598 4294901760
0.90738118 0.76961106 0.2344611 4294901760
0.97137332 0.96483433 0.40387326 4294901760
0.98030585 0.81053543 0.97583801 4294901760
0.75009453 0.36181352 0.60391301 4294901760
0.73380125 0.3120665 0.31099743 4294901760
0.76834071 0.37667394 0.74874514 4294901760
0.77685201 0.97577453 0.72387367 4294901760
0.94305319 0.87174046 0.83777279 4294901760
0.96852881 0.58152568 0.59725887 4294901760
0.23382388 0.088683859 0.74335319 4294901760
0.48007566 0.65054202 0.0013943947 4294901760
0.068361141 0.92590261 0.20088729 4294901760
0.5888952 0.73204297 0.27874038 4294901760
0.62513739 0.45868814 0.63977998 4294901760
0.94296294 0.84414548 0.93671823 4294901760
0.79519719 0.87882447 0.72388327 4294901760
0.43572953 0.98234361 0.17415829 4294901760
0.19999859 0.19976945 0.87797982 4294901760
0.80183136 0.18549909 0.17253013 4294901760
0.1356566 0.24572955 0.68016273 4294901760
0.25405756 0.65595353 0.38135272 4294901760
0.77745044 0.20385562 0.54657716 4294901760
0.78503036 0.80303848 0.25530136 4294901760
0.14456357 0.85998279 0.79940027 4294901760
0.96466196 0.62747324 0.026627779 4294901760
0.43572035 0.17259818 0.93483818 4294901760
0.97898394 0.084999472 0.59613913 4294901760
0.27147162 0.72561437 0.77209979 4294901760
0.30006969 0.12187751 0.049513526 4294901760
0.91862762 0.92914653 0.89950621 4294901760
0.37258515 0.010825092 0.60073489 4294901760
0.80133647 0.9723143 0.35696673 4294901760
0.94608229 0.75781041 0.68200737 4294901760
0.037640229 0.10668679 0.35770023 4294901760
0.07404241 0.87463135 0.30480468 4294901760
0.65766507 0.22483243 0.29470477 4294901760
0.34891248 0.24812937 0.67608583 4294901760
0.4336172 0.90034723 0.38722536 4294901760
0.13256055 0.61401409 0.45978317 4294901760
0.67924339 0.97474766 0.41562441 4294901760
0.13234493 0.65939146 0.20846458 4294901760
0.71728939 0.84569448 0.050122965 4294901760
0.34077561 0.75289416 0.31122291 4294901760
0.26954502 0.0072942032 0.81138885 4294901760
0.62925106 0.56877601 0.094863348 4294901760
0.22628275 0.1964756 0.76284379 4294901760
0.74400848 0.21982552 0.091356896 4294901760
0.23118657 0.86883706 0.8537125 4294901760
0.30951405 0.075113542 0.066529088 4294901760
0.083991267 0.13988821 0.13274474 4294901760
0.73345184 0.0036332328 0.59813464 4294901760
0.12487559 0.7159512 0.19482054 4294901760
0.20739324 0.95722616 0.78564948 4294901760
0.76770121 0.75337762 0.34867284 4294901760
0.051444076 0.34480065 0.58402431 4294901760
0.4002749 0.48364738 0.91640967 4294901760
0.72158355 0.76474136 0.3739894 4294901760
0.80832577 0.15579043 0.41589651 4294901760
0.054872345 0.42746046 0.24734916 4294901760
0.27293569 0.035512935 0.69872826 4294901760
0.11302954 0.23277891 0.47654694 4294901760
0.23333527 0.058667962 0.41752994 4294901760
0.41854668 0.38707742 0.78012341 4294901760
0.90744883 0.15338095 0.23627561 4294901760
0.41310701 0.053937986 0.18724425 4294901760
0.36700833 0.55727667 0.23199984 4294901760
0.78069419 0.77453089 0.11210411 4294901760
0.081400938 0.66215611 0.18478239 4294901760
0.9793849 0.46379468 0.016450498 4294901760
0.27931309 0.032211378 0.32706615 4294901760
0.027508739 0.22788335 0.18920468 4294901760
0.12254999 0.85779345 0.33309069 4294901760
0.13338067 0.29419416 0.78526711 4294901760
0.019886285 0.57588017 0.76576495 4294901760
0.01129293 0.83232278 0.48630306 4294901760
0.2557418 0.78898513 0.85766262 4294901760
0.29486707 0.5454185 0.78168267 4294901760
0.52386236 0.21859781 0.10453846 4294901760
0.71705437 0.39428642 0.39974031 4294901760
0.1104019 0.73885447 0.099763401 4294901760
0.13697888 0.6476565 0.018677428 4294901760
0.80325645 0.36315352 0.83746302 4294901760
0.82941711 0.2388992 0.54311895 4294901760
0.096589968 0.93356919 0.44552958 4294901760
0.46602389 0.76480335 0.60297006 4294901760
0.032997929 0.029720191 0.9377805 4294901760
0.66696769 0.71985513 0.75370777 4294901760
0.65362549 0.78265321 0.84403163 4294901760
0.011341186 0.77526176 0.9048326 4294901760
0.18727449 0.19041283 0.53770947 4294901760
0.86202663 0.43480805 0.31724191 4294901760
0.69165063 0.15809523 0.89514995 4294901760
0.4297269 0.27310663 0.17225742 4294901760
0.97817272 0.080717184 0.22636731 4294901760
0.58016747 0.081936076 0.41115952 4294901760
0.011960149 0.28884724 0.37479162 4294901760
0.51836705 0.69053763 0.93993837 4294901760
0.321417 0.91976023 0.0042589614 4294901760
0.072982721 0.69420654 0.4287574 4294901760
0.87332964 0.29609412 0.96361303 4294901760
0.0088275019 0.17095241 0.33668116 4294901760
0.78594315 0.65488285 0.20584495 4294901760
0.85962367 0.49896872 0.51132524 4294901760
0.56437206 0.33198148 0.62557244 4294901760
0.29965886 0.21627955 0.93331355 4294901760
0.75379175 0.059570082 0.071136579 4294901760
0.87792557 0.86381489 0.11874368 4294901760
0.0086075868 0.39610502 0.44336936 4294901760
0.13504443 0.98702437 0.85596025 4294901760
0.62184745 0.76345628 0.25284159 4294901760
0.93103719 0.70081085 0.80996132 4294901760
0.75684071 0.46226531 0.18476297 4294901760
0.88114065 0.025629671 0.25117549 4294901760
0.48646834 0.64684212 0.16962184 4294901760
0.43055212 0.55302876 0.62716275 4294901760
0.11281316 0.36712995 0.11688758 4294901760
0.7395283 0.6001001 0.15368576 4294901760
0.64348823 0.77830398 0.042054579 4294901760
0.81146288 0.88209224 0.93075234 4294901760
0.74009275 0.62527257 0.75076956 4294901760
0.68877155 0.60588115 0.17851661 4294901760
0.39862251 0.14186515 0.63663846 4294901760
0.055887751 0.22743261 0.48839656 4294901760
0.93939364 0.76261955 0.65588516 4294901760
0.69049543 0.42271772 0.81412005 4294901760
0.83214813 0.33089978 0.86329478 4294901760
0.92098397 0.10073149 0.5172208 4294901760
0.34643662 0.32950738 0.13646449 4294901760
0.12025481 0.51568955 0.99763942 4294901760
0.25878417 0.19157426 0.4477517 4294901760
0.17628646 0.42462921 0.74014229 4294901760
0.054502588 0.055250186 0.3118915 4294901760
0.026578071 0.62746108 0.87806499 4294901760
0.88851529 0.78598678 0.32307443 4294901760
0.14772749 0.016654804 0.22285566 4294901760
0.013549968 0.36786768 0.47502461 4294901760
0.43152508 0.3547743 0.95932251 4294901760
0.5393557 0.16199441 0.81778336 4294901760
0.22559656 0.61361146 0.40561748 4294901760
0.64086109 0.76371992 0.048775434 4294901760
0.39686301 0.9544251 0.17364372 4294901760
0.86873937 0.90012723 0.34297535 4294901760
0.75754303 0.090890206 0.037686072 4294901760
0.79635572 0.11299557 0.90549999 4294901760
0.0013089721 0.086133122 0.016745413 4294901760
0.22743544 0.029884355 0.45236832 4294901760
0.47214326 0.67762333 0.079136312 4294901760
0.82923502 0.30819246 0.11418562 4294901760
0.50321698 0.53629434 0.64093864 4294901760
0.52381086 0.2073555 0.80232298 4294901760
0.76904833 0.28339323 0.51721293 4294901760
0.22581926 0.36502367 0.85044748 4294901760
0.20129509 0.91469288 0.56482124 4294901760
0.23913197 0.73199862 0.77085131 4294901760
0.41122887 0.17522883 0.29748255 4294901760
0.17595892 0.86682194 0.54567534 4294901760
0.42669752 0.36096683 0.14754906 4294901760
0.51518744 0.14955771 0.39300644 4294901760
0.51520777 0.59862423 0.038332809 4294901760
0.59461427 0.37677678 0.2810587 4294901760
0.89600587 0.52226597 0.32976207 4294901760
0.32621366 0.033479292 0.086511075 4294901760
0.68074369 0.62641931 0.09642607 4294901760
0.20148446 0.40589148 0.30297399 4294901760
0.20267075 0.51302361 0.29872119 4294901760
0.29984507 0.59940279 0.44116712 4294901760
0.86983293 0.96994376 0.37847841 4294901760
0.33023024 0.52504271 0.85569775 4294901760
0.50495684 0.89297456 0.3113521 4294901760
0.60311246 0.067811176 0.58972782 4294901760
0.82775193 0.97720462 0.70015967 4294901760
0.7693432 0.4465442 0.040133838 4294901760
0.047482472 0.35946411 0.0082693882 4294901760
0.55271327 0.2125544 0.23693818 4294901760
0.31601623 0.97379047 0.21540515 4294901760
0.5358575 0.5166685 0.83253235 4294901760
0.81796086 0.48268405 0.73520476 4294901760
0.85353333 0.24960227 0.73908985 4294901760
0.11214534 0.75883383 0.10765664 4294901760
0.47925767 0.033220973 0.99891555 4294901760
0.50641692 0.29967457 0.61668664 4294901760
0.24724244 0.70702446 0.15986848 4294901760
0.70558256 0.33839327 0.998748 4294901760
0.33203918 0.90247667 0.74165189 4294901760
0.97877502 0.85768634 0.17895496 4294901760
0.42262471 0.64619553 0.21955316 4294901760
0.64058304 0.14605935 0.41018984 4294901760
0.76457053 0.25449845 0.49812436 4294901760
0.95403934 0.46571854 0.66825569 4294901760
0.28870049 0.17302184 0.10275171 4294901760
0.88045686 0.31131271 0.97075105 4294901760
0.99823666 0.66125757 0.26161641 4294901760
0.18984911 0.50100899 0.50907058 4294901760
0.51546323 0.77537268 0.42545563 4294901760
0.91595817 0.70038962 0.67156363 4294901760
0.7666322 0.70137584 0.60025018 4294901760
0.41585004 0.98653275 0.20464943 4294901760
0.74140048 0.65602964 0.46504411 4294901760
0.50545746 0.40635905 0.99984527 4294901760
0.80942434 0.59332013 0.88376963 4294901760
0.41355497 0.1880893 0.87682027 4294901760
0.10420247 0.31336015 0.66233075 4294901760
0.60653758 0.98948365 0.24064942 4294901760
0.27642947 0.89395547 0.13797098 4294901760
0.27645388 0.23352009 0.33088833 4294901760
0.53064215 0.48818848 0.74638623 4294901760
0.37840307 0.39319253 0.68758434 4294901760
0.96126807 0.36816657 0.23802942 4294901760
0.86889929 0.79265463 0.21001984 4294901760
0.41043812 0.73368585 0.63395369 4294901760
0.99194694 0.38520426 0.33219993 4294901760
0.6508376 0.583664 0.56215525 4294901760
0.90957606 0.81971109 0.67883313 4294901760
0.0058968514 0.17255786 0.12774852 4294901760
0.13050325 0.41674504 0.040791512 4294901760
0.12264851 0.65426886 0.70865554 4294901760
0.99652398 0.016711067 0.31195831 4294901760
0.96094018 0.96356803 0.59288692 4294901760
0.6118837 0.80094111 0.56430745 4294901760
0.068112172 0.90208864 0.47051919 4294901760
0.081041813 0.48281252 0.12612715 4294901760
0.57462204 0.60052413 0.20613024 4294901760
0.32034495 0.76198536 0.75136161 4294901760
0.44527397 0.65771252 0.27238128 4294901760
0.3734341 0.26258469 0.51015502 4294901760
0.71677762 0.6599499 0.91070265 4294901760
0.47731546 0.77992833 0.13955942 4294901760
0.10817087 0.94639271 0.53510731 4294901760
0.92896134 0.47635707 0.8121478 4294901760
0.49542433 0.7845273 0.94864792 4294901760
0.14238186 0.83216614 0.42619532 4294901760
0.65748996 0.9514432 0.0055938559 4294901760
0.28276721 0.30051973 0.88441402 4294901760
0.35258797 0.41580287 0.27397183 4294901760
0.69287968 0.15953323 0.72675407 4294901760
0.22786084 0.36760095 0.9576022 4294901760
0.4821901 0.48232374 0.52694964 4294901760
0.50214177 0.03675073 0.17266218 4294901760
0.19993557 0.12200229 0.79975128 4294901760
0.82012123 0.39752427 0.92837459 4294901760
0.069169194 0.91519696 0.32964158 4294901760
0.79467696 0.88744783 0.5899502 4294901760
0.26425296 0.17002882 0.55662465 4294901760
0.43412432 0.41758689 0.92544389 4294901760
0.69048315 0.65701866 0.46801272 4294901760
0.6907934 0.1184776 0.70444494 4294901760
0.25437883 0.10606273 0.21455182 4294901760
0.10407283 0.59359759 0.89642078 4294901760
0.17477401 0.97148621 0.18391404 4294901760
0.074976221 0.62036699 0.20986953 4294901760
0.93099493 0.77806908 0.037105612 4294901760
0.97413367 0.10022617 0.52663797 4294901760
0.96937859 0.45954818 0.37802097 4294901760
0.8828398 0.82479358 0.10872656 4294901760
0.077582009 0.62010819 0.59536898 4294901760
0.11206876 0.72355694 0.59529334 4294901760
0.71382588 0.078900553 0.24551089 4294901760
0.82294291 0.35883501 0.31795925 4294901760
0.0095694913 0.69925195 0.66387594 4294901760
0.58301151 0.33391544 0.96779007 4294901760
0.48015025 0.68230689 0.89310396 4294901760
0.34220615 0.89814085 0.99898362 4294901760
0.74423581 0.73381132 0.57964164 4294901760
0.36815634 0.057322469 0.25020057 4294901760
0.34215051 0.81251329 0.47192553 4294901760
0.072130732 0.97491831 0.83302766 4294901760
0.49482518 0.38364258 0.52559447 4294901760
0.01184644 0.50694758 0.48409551 4294901760
0.03454617 0.46509099 0.28144109 4294901760
0.19388027 0.38524023 0.85510051 4294901760
0.30239099 0.0049787941 0.85329819 4294901760
0.78057957 0.66572011 0.18352941 4294901760
0.52108139 0.86693394 0.12414103 4294901760
0.15846083 0.55597049 0.27072641 4294901760
0.3110671 0.33359194 0.40385893 4294901760
0.012498088 0.57948041 0.21027239 4294901760
0.01912629 0.91567224 0.18934631 4294901760
0.43150181 0.38493976 0.075259089 4294901760
0.31170982 0.62214613 0.35685369 4294901760
0.67207319 0.79595995 0.89606518 4294901760
0.68092531 0.3077237 0.54564416 4294901760
0.64779353 0.83827335 0.52412975 4294901760
0.54440588 0.3823095 0.34773296 4294901760
0.92316085 0.97094148 0.97453463 4294901760
0.46568078 0.007857562 0.89158845 4294901760
0.35690886 0.8122564 0.19866276 4294901760
0.25913295 0.77707785 0.47029531 4294901760
0.42380571 0.95718002 0.16243809 4294901760
0.99445891 0.82495493 0.75642669 4294901760
0.42212981 0.74960595 0.76740807 4294901760
0.2984342 0.12479854 0.87721223 4294901760
0.8297016 0.73045719 0.013038627 4294901760
0.39100817 0.14876129 0.42944092 4294901760
0.83648384 0.058996424 0.90319228 4294901760
0.075139835 0.19666976 0.33470017 4294901760
0.73571807 0.031246869 0.71235061 4294901760
0.89316446 0.95702857 0.43698838 4294901760
0.72070682 0.36335006 0.64586133 4294901760
0.46873024 0.1529668 0.47862431 4294901760
0.20462039 0.98329818 0.12968206 4294901760
0.37819332 0.42379937 0.37486726 4294901760
0.90810037 0.010568437 0.42249474 4294901760
0.0599517 0.32576007 0.7882061 4294901760
0.73133147 0.47359776 0.10814382 4294901760
0.37632143 0.47936112 0.66266739 4294901760
0.70472282 0.24729592 0.94835049 4294901760
0.50243711 0.934201 0.033264525 4294901760
0.68763077 0.02207786 0.13563366 4294901760
0.16434111 0.31081709 0.17095941 4294901760
0.29299033 0.82892394 0.73055673 4294901760
0.92080623 0.096826069 0.71879715 4294901760
0.45778105 0.79384935 0.75477713 4294901760
0.35259056 0.68715644 0.84308451 4294901760
0.44708031 0.36531579 0.11836512 4294901760
0.36605233 0.73440474 0.54504627 4294901760
0.52235097 0.0076231714 0.73278272 4294901760
0.19998623 0.8369953 0.14433643 4294901760
0.6743685 0.27432293 0.12448353 4294901760
0.087039769 0.0051646773 0.34499347 4294901760
0.25938705 0.49258438 0.15145253 4294901760
0.069092847 0.36360797 0.67133719 4294901760
0.75202572 0.1935243 0.18207254 4294901760
0.94442397 0.91154164 0.11897605 4294901760
0.98759365 0.36837047 0.74108338 4294901760
0.62253666 0.37146571 0.77876705 4294901760
0.098646432 0.69237858 0.33208963 4294901760
0.33195367 0.50037426 0.28044015 4294901760
0.40380073 0.63808292 0.67066997 4294901760
0.4705869 0.23129468 0.54993439 4294901760
0.7553184 0.56845933 0.030021099 4294901760
0.82867557 0.017731063 0.27378374 4294901760
0.52138072 0.37885281 0.24955365 4294901760
0.63919646 0.84852427 0.097175255 4294901760
0.41158292 0.91088259 0.71835643 4294901760
0.11390822 0.22735837 0.79117578 4294901760
0.11058348 0.051229395 0.28267065 4294901760
0.82050943 0.61814755 0.89935535 4294901760
0.43450335 0.38379064 0.48112464 4294901760
0.45454529 0.12882552 0.83756435 4294901760
0.89791799 0.65348893 0.60391569 4294901760
0.092677616 0.84061635 0.87917018 4294901760
0.090048492 0.9571445 0.12756078 4294901760
0.52793896 0.54258072 0.0503777 4294901760
0.86196744 0.28959545 0.48808414 4294901760
0.84460348 0.30862686 0.84390229 4294901760
0.68152237 0.63783699 0.95268804 4294901760
0.98049295 0.6381796 0.86417699 4294901760
0.14548591 0.55582386 0.92632473 4294901760
0.97230053 0.0018009396 0.31794363 4294901760
0.3623504 0.8750295 0.58151531 4294901760
0.91871208 0.031871352 0.094036005 4294901760
0.56985986 0.12651776 0.93029279 4294901760
0.090528712 0.24302135 0.33403715 4294901760
0.13532493 0.61896914 0.899988 4294901760
0.76742929 0.56472707 0.85484308 4294901760
0.92997593 0.19233066 0.22537881 4294901760
0.66191971 0.27711099 0.69465101 4294901760
0.79894459 0.1907969 0.036206622 4294901760
0.7047621 0.88554162 0.77639294 4294901760
0.82748121 0.19499455 0.68044704 4294901760
0.30059865 0.73045146 0.68653494 4294901760
0.93439102 0.22687131 0.04611747 4294901760
0.063519649 0.039695408 0.77942902 4294901760
0.63449186 0.91137248 0.5674004 4294901760
0.54482484 0.86924994 0.39406785 4294901760
0.35090828 0.41609785 0.64491767 4294901760
0.76637697 0.4189803 0.50003082 4294901760
0.25451255 0.59691441 0.66963065 4294901760
0.20455836 0.31697109 0.17169409 4294901760
0.66425121 0.99111879 0.46930346 4294901760
0.55297345 0.64714086 0.53481668 4294901760
0.027545765 0.18444578 0.50860119 4294901760
0.56172299 0.0435411 0.25977546 4294901760
0.9364869 0.28418705 0.36260834 4294901760
0.88594955 0.96948576 0.32905972 4294901760
0.014988927 0.94127595 0.37371984 4294901760
0.038343474 0.79962218 0.076865897 4294901760
0.29329586 0.6509577 0.89622998 4294901760
0.37259933 0.26715103 0.31519279 4294901760
0.84776533 0.45784003 0.89130491 4294901760
0.75206274 0.48664212 0.43864667 4294901760
0.20658647 0.78630674 0.53035223 4294901760
0.73464268 0.68738377 0.81967705 4294901760
0.1995303 0.25425538 0.79512876 4294901760
0.085744038 0.12427712 0.52546519 4294901760
0.5297665 0.77004683 0.5478701 4294901760
0.39177966 0.75417805 0.4682408 4294901760
0.14680074 0.78400755 0.42954513 4294901760
0.79578078 0.46329552 0.18693303 4294901760
0.018172456 0.48923212 0.035115473 4294901760
0.52977121 0.75941855 0.68364674 4294901760
0.95292777 0.72549677 0.16466132 4294901760
0.55105948 0.07311631 0.90286326 4294901760
0.46951559 0.20902707 0.48268858 4294901760
0.94140393 0.056314789 0.93841326 4294901760
0.67349768 0.51727825 0.82259119 4294901760
0.76590061 0.31187192 0.59289402 4294901760
0.66128033 0.83452463 0.57678586 4294901760
0.45701867 0.48420525 0.45293668 4294901760
0.7767188 0.7785064 0.97812694 4294901760
0.38215533 0.84107977 0.099944554 4294901760
0.16887914 0.25930294 0.50096488 4294901760
0.33882275 0.54994178 0.72776914 4294901760
0.36066696 0.052799825 0.24457401 4294901760
0.099109367 0.35636547 0.31742057 4294901760
0.81553864 0.06618201 0.50328237 4294901760
0.67076874 0.17333378 0.34100252 4294901760
0.56779647 0.62667125 0.41703585 4294901760
0.90255648 0.47139725 0.39634335 4294901760
0.92569572 0.56995088 0.41306242 4294901760
0.9164663 0.067844935 0.49846995 4294901760
0.29556349 0.11449918 0.88284671 4294901760
0.43748486 0.58320421 0.13203864 4294901760
0.015820818 0.012369349 0.4901104 4294901760
0.24199411 0.33147797 0.37280595 4294901760
0.8855961 0.80541378 0.05680741 4294901760
0.11636653 0.697393 0.77766591 4294901760
0.52309281 0.60237652 0.92426902 4294901760
0.038771961 0.43558106 0.95666152 4294901760
0.47940618 0.35671496 0.29243973 4294901760
0.20664145 0.40253425 0.52596498 4294901760
0.51866114 0.55750257 0.28553912 4294901760
0.49905181 0.11871438 0.34164834 4294901760
0.069663905 0.92473227 0.92262262 4294901760
0.71091115 0.62528646 0.43270522 4294901760
0.01547828 0.92499733 0.97706282 4294901760
0.098223664 0.92344916 0.38426188 4294901760
0.56337291 0.51727289 0.70329183 4294901760
0.89607483 0.43227094 0.649472 4294901760
0.62082672 0.56105798 0.36504447 4294901760
0.46378958 0.31476563 0.41592258 4294901760
0.16621302 0.22937575 0.71319443 4294901760
0.88066226 0.48922229 0.46730387 4294901760
0.3533169 0.47134554 0.10984702 4294901760
0.73164856 0.13067934 0.25824755 4294901760
0.53744423 0.61335033 0.33211195 4294901760
0.46615145 0.94497305 0.85416687 4294901760
0.33206227 0.64768726 0.87153614 4294901760
0.3747575 0.20054036 0.97783691 4294901760
0.094136856 0.97960776 0.47974864 4294901760
0.63473469 0.93009174 0.84167576 4294901760
0.89631873 0.21903476 0.43172204 4294901760
0.64752483 0.12017121 0.88370335 4294901760
0.026881957 0.79600888 0.24557525 4294901760
0.57485557 0.41622958 0.61415565 4294901760
0.94601154 0.2646991 0.66658497 4294901760
0.32781816 0.73974812 0.53372359 4294901760
0.38843587 0.30168277 0.064165816 4294901760
0.12961902 0.98078752 0.11864487 4294901760
0.10202876 0.46878099 0.30551302 4294901760
0.96871984 0.99777675 0.82052094 4294901760
0.063248016 0.21015422 0.091450997 4294901760
0.80064374 0.010393513 0.17969787 4294901760
0.89345992 0.19623755 0.56109375 4294901760
0.046312205 0.70397681 0.32331973 4294901760
0.31378356 0.48793802 0.1556273 4294901760
0.55017978 0.92856807 0.61593705 4294901760
0.49580139 0.50397503 0.9549008 4294901760
0.70331717 0.19222617 0.48422673 4294901760
0.58132404 0.59733677 0.69306982 4294901760
0.36915439 0.27144375 0.16076122 4294901760
0.4375667 0.79730988 0.85447758 4294901760
0.98280615 0.29578489 0.12926534 4294901760
0.96470547 0.045152068 0.55039674 4294901760
0.14330815 0.32745853 0.11433248 4294901760
0.50499803 0.41173282 0.78872168 4294901760
0.16858044 0.68169522 0.30960372 4294901760
0.42414355 0.12282843 0.30619255 4294901760
0.73198563 0.076265953 0.77440768 4294901760
0.050765805 0.77129179 0.85982257 4294901760
0.32498664 0.54406947 0.20215867 4294901760
0.13239592 0.21585602 0.94915742 4294901760
0.021482904 0.85740203 0.84920025 4294901760
0.36028984 0.34369624 0.54010415 4294901760
0.14288576 0.062114652 0.87289089 4294901760
0.1398727 0.56550175 0.5211193 4294901760
0.55163813 0.016630052 0.30083632 4294901760
0.32514283 0.48676318 0.85712796 4294901760
0.019236317 0.33869427 0.65274638 4294901760
0.73210204 0.72508812 0.78298134 4294901760
0.48010221 0.57718444 0.39245442 4294901760
0.77934992 0.68911666 0.60055572 4294901760
0.83123428 0.23244144 0.86399758 4294901760
0.59383559 0.43209183 0.8094613 4294901760
0.84250456 0.25591278 0.13029592 4294901760
0.32736424 0.33100167 0.2622638 4294901760
0.602404 0.72080648 0.61815435 4294901760
0.73260146 0.78078413 0.91445047 4294901760
0.14308032 0.74994522 0.15229152 4294901760
0.93685085 0.90577126 0.24536091 4294901760
0.30207649 0.13811897 0.75974178 4294901760
0.59903765 0.38302439 0.84061903 4294901760
0.16171138 0.60943466 0.56529391 4294901760
0.8991437 0.51038414 0.47791505 4294901760
0.30531487 0.61759341 0.37299576 4294901760
0.44270802 0.75734794 0.11872382 4294901760
0.68260217 0.39290804 0.42220497 4294901760
0.41814223 0.47445405 0.51663798 4294901760
0.71767992 0.18351518 0.46279526 4294901760
0.15102731 0.57122743 0.29989418 4294901760
0.44540623 0.65232539 0.95092976 4294901760
0.78518045 0.87705475 0.20385318 4294901760
0.49204496 0.37274271 0.28322858 4294901760
0.52874315 0.55076581 0.53601944 4294901760
0.97933799 0.4736461 0.33345276 4294901760
0.68682009 0.87201852 0.70561814 4294901760
0.49539784 0.21954553 0.96115887 4294901760
0.025860917 0.24986631 0.17738572 4294901760
0.95830548 0.77799636 0.51555836 4294901760
0.49627534 0.84609348 0.20461738 4294901760
0.44671848 0.2151036 0.65107566 4294901760
0.78432423 0.97188699 0.28820306 4294901760
0.9119584 0.86706793 0.43190509 4294901760
0.82645059 0.40839818 0.47748092 4294901760
0.81227112 0.84060788 0.39112735 4294901760
0.69410849 0.26280525 0.9604916 4294901760
0.26154053 0.36939877 0.33458894 4294901760
0.89186466 0.0099044414 0.071967401 4294901760
0.78887826 0.50242209 0.4595539 4294901760
0.16749832 0.50890297 0.78485328 4294901760
0.61338902 0.77164239 0.010472856 4294901760
0.72238022 0.52428716 0.64062387 4294901760
0.22744322 0.98601073 0.71853924 4294901760
0.092660971 0.75527787 0.71780986 4294901760
0.34149134 0.65891594 0.29978886 4294901760
0.63603473 0.90700263 0.39952707 4294901760
0.42182699 0.29010701 0.092519633 4294901760
0.316733 0.24034144 0.45229033 4294901760
0.20117524 0.44472384 0.41282758 4294901760
0.90833187 0.079216503 0.22419153 4294901760
0.22810899 0.86196399 0.95006096 4294901760
0.11682037 0.2707217 0.80184221 4294901760
0.33505675 0.36279044 0.60759741 4294901760
0.65158159 0.98618674 0.61127621 4294901760
0.76058722 0.65667683 0.81419653 4294901760
0.00910246 0.89779907 0.85498923 4294901760
0.28301594 0.30376202 0.34271184 4294901760
0.32307127 0.25915945 0.69498134 4294901760
0.21807367 0.42024353 0.52497804 4294901760
0.20143408 0.34559944 0.16566093 4294901760
0.97293133 0.71730739 0.039595168 4294901760
0.1694639 0.94984388 0.35983372 4294901760
0.49335656 0.80937064 0.20561495 4294901760
0.096975029 0.18220608 0.43050191 4294901760
0.596977 0.48692128 0.96155673 4294901760
0.5588187 0.062919877 0.49242201 4294901760
0.5454551 0.75707692 0.18621837 4294901760
0.69779891 0.014509324 0.35188448 4294901760
0.41517884 0.69209111 0.85746878 4294901760
0.38763049 0.6419 0.3720887 4294901760
0.18050821 0.20497034 0.9806416 4294901760
0.99525911 0.75399154 0.99834299 4294901760
0.049372066 0.087508701 0.64898878 4294901760
0.0068560317 0.61682868 0.14065599 4294901760
0.26797727 0.00038026145 0.98229223 4294901760
0.17972228 0.71047592 0.99763542 4294901760
0.51947623 0.28145355 0.64339292 4294901760
0.71805489 0.41062719 0.93707049 4294901760
0.90779746 0.88834667 0.074447356 4294901760
0.82237363 0.91969198 0.63384348 4294901760
0.58996862 0.088595934 0.84583414 4294901760
0.77573556 0.39488849 0.23750575 4294901760
0.58331609 0.49611044 0.33985797 4294901760
0.12436223 0.67394775 0.26275456 4294901760
0.68446046 0.11828256 0.66929823 4294901760
0.66220212 0.53281206 0.71738994 4294901760
0.92528522 0.72459 0.94147974 4294901760
0.69383168 0.78250504 0.07328435 4294901760
0.51913345 0.59325647 0.45998365 4294901760
0.37146321 0.78135341 0.46722049 4294901760
0.90759391 0.22792417 0.74892825 4294901760
0.39424649 0.32947665 0.49415535 4294901760
0.87973887 0.75918394 0.36111027 4294901760
0.75701022 0.32136139 0.4249604 4294901760
0.99464303 0.47341296 0.13317016 4294901760
0.073684856 0.44354078 0.77540785 4294901760
0.014978772 0.18202898 0.99953055 4294901760
0.055506442 0.40918955 0.26378909 4294901760
0.15729223 0.30172461 0.022746561 4294901760
0.90744615 0.93803161 0.81354165 4294901760
0.046994995 0.85924214 0.34851643 4294901760
0.1706558 0.3564783 0.1131817 4294901760
0.88349897 0.1906992 0.2885986 4294901760
0.01991358 0.85236651 0.64564228 4294901760
0.33008045 0.34350654 0.033438593 4294901760
0.92819637 0.52380764 0.94783336 4294901760
0.34703448 0.30301514 0.27311623 4294901760
0.010171556 0.015658772 0.93834269 4294901760
0.59384507 0.87722051 0.66772842 4294901760
0.86130047 0.94530684 0.8112492 4294901760
0.79001886 0.16224001 0.15373001 4294901760
0.07619065 0.72660565 0.79744661 4294901760
0.99630141 0.40694156 0.51231027 4294901760
0.96869713 0.096867509 0.086756833 4294901760
0.42712012 0.14666642 0.61991066 4294901760
0.0039927093 0.33347499 0.78935742 4294901760
0.081285045 0.94744742 0.65566599 4294901760
0.26327318 0.64830297 0.42550483 4294901760
0.09064202 0.5089311 0.59417897 4294901760
0.3074407 0.16734482 0.84626788 4294901760
0.80696052 0.50757772 0.094652988 4294901760
0.28220555 0.0081972852 0.46764746 4294901760
0.56596148 0.16069084 0.81710446 4294901760
0.91288292 0.67120558 0.24414489 4294901760
0.085236788 0.2221321 0.5263896 4294901760
0.20320609 0.73182034 0.53775632 4294901760
0.61377478 0.49757189 0.51970738 4294901760
0.94134253 0.73820066 0.71508545 4294901760
0.30163333 0.35497922 0.58252627 4294901760
0.32247376 0.69178659 0.87073725 4294901760
0.83918083 0.36793393 0.9077453 4294901760
0.23993279 0.78031284 0.69641882 4294901760
0.81378978 0.21631905 0.10408967 4294901760
0.006103714 0.15746401 0.5591411 4294901760
0.61019683 0.019896727 0.093368873 4294901760
0.53282696 0.29156613 0.73794651 4294901760
0.27113056 0.51397508 0.94722033 4294901760
0.16421448 0.23036996 0.34237164 4294901760
0.74786776 0.54100192 0.080770336 4294901760
0.06439548 0.5686304 0.38381898 4294901760
0.23783901 0.6242609 0.41934094 4294901760
0.31989652 0.12362865 0.38955426 4294901760
0.7518813 0.53412825 0.034973513 4294901760
0.5728572 0.20363429 0.9591136 4294901760
0.37544832 0.076332115 0.98584878 4294901760
0.9763087 0.14429983 0.32434705 4294901760
0.47737914 0.70191914 0.03507933 4294901760
0.76270825 0.1444682 0.092249028 4294901760
0.41918695 0.18560991 0.47364211 4294901760
0.81147188 0.60380089 0.20724453 4294901760
0.88644373 0.10045557 0.55793482 4294901760
0.40438804 0.9258914 0.31839904 4294901760
0.40856352 0.61892277 0.44736412 4294901760
0.24006593 0.27985755 0.97246772 4294901760
0.37669593 0.8919853 0.65436226 4294901760
0.96785825 0.46997187 0.78190666 4294901760
0.10472702 0.68020105 0.0060385745 4294901760
0.095310189 0.79032582 0.3781808 4294901760
0.52248758 0.6351856 0.60587287 4294901760
0.25153092 0.84029675 0.80449343 4294901760
0.28370878 0.93790722 0.59910405 4294901760
0.22119021 0.52945185 0.99455732 4294901760
0.53237736 0.076944381 0.77800298 4294901760
0.33708468 0.97826213 0.9027763 4294901760
0.92339027 0.93839908 0.38755041 4294901760
0.5918715 0.022590026 0.83137655 4294901760
0.49955174 0.70948851 0.094460741 4294901760
0.73859704 0.14961295 0.90215182 4294901760
0.32506379 0.39968342 0.73984641 4294901760
0.087167136 0.18350576 0.35813546 4294901760
0.61607748 0.46460867 0.68529761 4294901760
0.5730983 0.89892542 0.68523586 4294901760
0.57713395 0.70319867 0.72680861 4294901760
0.25778392 0.39191771 0.9334082 4294901760
0.59824026 0.73876017 0.1101132 4294901760
0.93148774 0.19659546 0.1561055 4294901760
0.27057624 0.13703966 0.48858479 4294901760
0.81386906 0.69194949 0.87397003 4294901760
0.56109703 0.75530469 0.16394107 4294901760
0.45879146 0.12183278 0.54679209 4294901760
0.70059133 0.58114827 0.920748 4294901760
0.45674616 0.38212848 0.47933909 4294901760
0.70134586 0.27737072 0.95170307 4294901760
0.91164684 0.75275505 0.44249049 4294901760
0.61884612 0.87954831 0.1089962 4294901760
0.33355629 0.29152948 0.56326729 4294901760
0.15864962 0.83222276 0.92524755 4294901760
0.40447986 0.34402138 0.43190569 4294901760
0.012977988 0.0092512202 0.60828024 4294901760
0.57834804 0.98164886 0.78876597 4294901760
0.52664101 0.7865051 0.2428356 4294901760
0.0570613 0.71926987 0.075142004 4294901760
0.98919898 0.10867163 0.41392845 4294901760
0.021969559 0.59264857 0.58040535 4294901760
0.2069021 0.092268042 0.36022428 4294901760
0.7895357 0.67127311 0.90407526 4294901760
0.56308818 0.91664886 0.92597783 4294901760
0.59147847 0.24534176 0.406609 4294901760
0.79744625 0.82694465 0.99201387 4294901760
0.82041484 0.56848156 0.47444329 4294901760
0.69957572 0.48089835 0.78715867 4294901760
0.16839916 0.39220285 0.74549985 4294901760
0.97493488 0.16536735 0.080316983 4294901760
0.30918318 0.2779839 0.57277995 4294901760
0.2738252 0.34625143 0.94652832 4294901760
0.024723692 0.58021736 0.43337935 4294901760
0.98027313 0.49535209 0.028264496 4294901760
0.91820824 0.065527998 0.74039119 4294901760
0.15849626 0.049124762 0.62430906 4294901760
0.44165719 0.47392622 0.3331908 4294901760
0.38569543 0.10543051 0.99079573 4294901760
0.43718398 0.028236868 0.99411887 4294901760
0.04547311 0.50661981 0.95224029 4294901760
0.77774763 0.71963435 0.44452184 4294901760
0.57127976 0.27355224 0.21783789 4294901760
0.70057344 0.41388616 0.28361762 4294901760
0.3741591 0.13466005 0.89971799 4294901760
0.37614581 0.051291071 0.77371687 4294901760
0.89152443 0.35595897 0.42352286 4294901760
0.24021083 0.29309249 0.72847104 4294901760
0.52758986 0.39356032 0.15696748 4294901760
0.21299554 0.92566866 0.54594857 4294901760
0.016375314 0.2088697 0.12816943 4294901760
0.23603666 0.55695957 0.35373408 4294901760
0.40351254 0.49467528 0.4289636 4294901760
0.81667566 0.6117934 0.26489195 4294901760
0.58818573 0.27657107 0.87852836 4294901760
0.29119238 0.37314779 0.93811852 4294901760
0.54830348 0.99103075 0.43689159 4294901760
0.78541076 0.94650078 0.6486935 4294901760
0.78328156 0.35635254 0.24437155 4294901760
0.02428502 0.38684702 0.1274543 4294901760
0.5722127 0.65298146 0.40409821 4294901760
0.62981921 0.93414539 0.83813882 4294901760
0.95392495 0.26658964 0.24012339 4294901760
0.40930757 0.64780641 0.74968463 4294901760
0.31995082 0.3964296 0.32477117 4294901760
0.76078451 0.41604888 0.37484983 4294901760
0.056969848 0.067830741 0.96019948 4294901760
0.49357423 0.86076319 0.36161703 4294901760
0.5797264 0.96961272 0.4952144 4294901760
0.64672631 0.1872561 0.81280297 4294901760
0.75027138 0.30931374 0.84508741 4294901760
0.52930057 0.42435136 0.11028027 4294901760
0.89142394 0.73490173 0.94411308 4294901760
0.35464203 0.12932533 0.59585184 4294901760
0.84608114 0.38832647 0.045923322 4294901760
0.7240153 0.17969401 0.5494563 4294901760
0.91914833 0.77204138 0.0060715377 4294901760
0.065847129 0.034789439 0.58112288 4294901760
0.90499592 0.16121173 0.62012696 4294901760
0.22682756 0.44437978 0.986709 4294901760
0.67145294 0.97183335 0.30033356 4294901760
0.49345446 0.09645959 0.86594701 4294901760
0.52677363 0.44346324 0.30519027 4294901760
0.65786618 0.95156789 0.66359109 4294901760
0.11277573 0.23435423 0.14756663 4294901760
0.15263745 0.45243239 0.33801547 4294901760
0.080275632 0.55910426 0.25699592 4294901760
0.56770617 0.19160311 0.92425776 4294901760
0.1097092 0.76855135 0.70066267 4294901760
0.72013026 0.99878722 0.20620088 4294901760
0.025759766 0.63045049 0.57345802 4294901760
0.53178757 0.80012935 0.24034292 4294901760
0.63503683 0.61228496 0.81475264 4294901760
0.69040978 0.22178534 0.64731455 4294901760
0.67881626 0.4289622 0.652888 4294901760
0.83967549 0.96348691 0.28006366 4294901760
0.071359493 0.78462964 0.27314249 4294901760
0.93236303 0.62006891 0.37307474 4294901760
0.14492728 0.34626457 0.12920734 4294901760
0.36528054 0.62997377 0.030641222 4294901760
0.40337548 0.66032791 0.16689046 4294901760
0.40997377 0.44600499 0.68772763 4294901760
