# .PCD v0.7 - Point Cloud Data file format
VERSION 0.7
FIELDS x y z rgb
SIZE 4 4 4 4
TYPE F F F U
COUNT 1 1 1 1
WIDTH 1086
HEIGHT 1
VIEWPOINT 0 0 0 1 0 0 0
POINTS 1086
DATA ascii
0.50571948 0.35951334 0.34403369 4278255360
0.97934294 0.42135349 0.46558136 4278255360
0.076328322 0.036724608 0.46289861 4278255360
0.43519148 0.67105776 0.022854416 4278255360
0.028072115 0.99016458 0.570261 4278255360
0.060179055 0.52229303 0.023894478 4278255360
0.88054144 0.0052356734 0.97279799 4278255360
0.89182627 0.77094495 0.9649483 4278255360
0.52177536 0.95267189 0.88987178 4278255360
0.94756156 0.10815056 0.21508953 4278255360
0.63709003 0.69282204 0.34898245 4278255360
0.14147577 0.48876446 0.83354896 4278255360
0.46124858 0.017308872 0.93561757 4278255360
0.33498466 0.23837788 0.69944537 4278255360
0.39501289 0.28569129 0.03965281 4278255360
0.99379915 0.058453154 0.66900569 4278255360
0.79492354 0.35637486 0.73531806 4278255360
0.49557611 0.00049326022 0.37512821 4278255360
0.96733302 0.65586799 0.2448936 4278255360
0.43698159 0.51459742 0.9675827 4278255360
0.99481738 0.99138939 0.020505203 4278255360
0.1385981 0.10503791 0.0040955944 4278255360
0.029846733 0.95742673 0.22927958 4278255360
0.94131154 0.11898768 0.38637137 4278255360
0.0044984929 0.014576453 0.66014111 4278255360
0.94244474 0.81783068 0.6578294 4278255360
0.88998795 0.016528843 0.99163598 4278255360
0.62423325 0.50329137 0.035713386 4278255360
0.069076031 0.95542866 0.90573567 4278255360
0.14060125 0.49691516 0.46786752 4278255360
0.56822443 0.93948197 0.31617054 4278255360
0.48133639 0.14887241 0.60778999 4278255360
0.63450211 0.95793325 0.97270161 4278255360
0.99593168 0.46144697 0.99604428 4278255360
0.67856216 0.52547413 0.46456572 4278255360
0.11020306 0.5318827 0.032020196 4278255360
0.54116893 0.11073218 0.18230413 4278255360
0.24359049 0.1420604 0.96133387 4278255360
0.98471111 0.64413655 0.20392558 4278255360
0.3075974 0.84178257 0.61770719 4278255360
0.31657526 0.88037217 0.014493419 4278255360
0.9722299 0.35235325 0.0038417121 4278255360
0.97553974 0.46280786 0.64740896 4278255360
0.037958048 0.52326018 0.7968207 4278255360
0.68428665 0.27534607 0.91379577 4278255360
0.68528163 0.83056998 0.0074278913 4278255360
0.15528342 0.043846674 0.36493266 4278255360
0.37493563 0.36733976 0.27772579 4278255360
0.8864966 0.93779927 0.30546436 4278255360
0.32047489 0.75481391 0.3119503 4278255360
0.61237663 0.84861499 0.68916696 4278255360
0.18938428 0.73300773 0.30506077 4294901760
0.097072825 0.19908197 0.38706172 4294901760
0.51642257 0.66488814 0.12952048 4294901760
0.83502805 0.16293588 0.079727277 4294901760
0.18181558 0.83769333 0.016187686 4294901760
0.51297498 0.20164302 0.9819867 4294901760
0.88201725 0.36445335 0.58167177 4294901760
0.082758658 0.59406543 0.46964321 4294901760
0.32735214 0.96523118 0.0052537424 4294901760
0.72261417 0.61117804 0.091146223 4294901760
0.0935487 0.95067364 0.70968449 4294901760
0.06884487 0.53526866 0.5225535 4294901760
0.91981989 0.9968645 0.6794309 4294901760
0.84004867 0.50979626 0.29353306 4294901760
0.21898578 0.42387322 0.3682332 4294901760
0.2274413 0.56260568 0.21469794 4294901760
0.33194596 0.67046481 0.9301821 4294901760
0.94246876 0.15380232 0.98154706 4294901760
0.1644499 0.70663571 0.031029202 4294901760
0.76404786 0.3406167 0.31384203 4294901760
0.53417546 0.26227519 0.86224908 4294901760
0.043160573 0.41036221 0.32092896 4294901760
0.092680313 0.84229434 0.4336946 4294901760
0.98858446 0.4918721 0.92804152 4294901760
0.77657443 0.29501566 0.35736203 4294901760
0.05121864 0.4703216 0.95742929 4294901760
0.25107047 0.84971017 0.43443951 4294901760
0.97210914 0.0029578791 0.010371698 4294901760
0.7438041 0.38834056 0.60618281 4294901760
0.79983801 0.95844996 0.36875138 4294901760
0.63796031 0.069652826 0.24245456 4294901760
0.94596171 0.16943967 0.45223269 4294901760
0.96127272 0.1900706 0.84659123 4294901760
0.19973859 0.64003462 0.053363346 4294901760
0.53362817 0.25649789 0.46017557 4294901760
0.92682868 0.0085541625 0.89442474 4294901760
0.019069375 0.52085143 0.37685359 4294901760
0.84057921 0.94288737 0.15515697 4294901760
0.45071211 0.033647824 0.3218765 4294901760
0.88538498 0.15976498 0.86112088 4294901760
0.016060164 0.67127705 0.97775692 4294901760
0.16168252 0.0036951192 0.49408817 4294901760
0.11667255 0.13903663 0.30564567 4294901760
0.1322498 0.87217444 0.64220792 4294901760
0.86692482 0.69154549 0.7501958 4294901760
0.26224378 0.74950969 0.1774599 4294901760
0.059017226 0.8975091 0.78090924 4294901760
0.084449954 0.46747804 0.71409869 4294901760
0.75391257 0.70351088 0.49662811 4294901760
0.41104472 0.66609079 0.89272887 4294901760
0.58335584 0.90686756 0.2080037 4294901760
0.23537572 0.54697692 0.18028229 4294901760
0.099665388 0.39806387 0.85367179 4294901760
0.037812795 0.41409126 0.14658499 4294901760
0.94797766 0.11231767 0.21515037 4294901760
0.039637554 0.78094631 0.030484663 4294901760
0.34460077 0.0068387249 0.38853133 4294901760
0.45481515 0.17180738 0.18455008 4294901760
0.53996992 0.14867523 0.84871775 4294901760
0.026317561 0.89209056 0.2998918 4294901760
0.45674446 0.82683587 0.43936932 4294901760
0.2016959 0.32270744 0.70167428 4294901760
0.76519948 0.59878325 0.58535182 4294901760
0.53309315 0.54242301 0.10796992 4294901760
0.25054213 0.53378093 0.38459253 4294901760
0.35102543 0.57207936 0.37102839 4294901760
0.50242496 0.18338454 0.30361184 4294901760
0.25296426 0.24431634 0.48600635 4294901760
0.3664228 0.85243857 0.17742564 4294901760
0.89010024 0.5152247 0.46213281 4294901760
0.13144544 0.52138674 0.9457947 4294901760
0.6897977 0.10869794 0.96754992 4294901760
0.25691757 0.64267313 0.20080519 4294901760
0.50431174 0.13166897 0.040633619 4294901760
0.4253431 0.48561975 0.87860322 4294901760
0.42782897 0.43844867 0.19347332 4294901760
0.92849553 0.16929644 0.81493306 4294901760
0.51466835 0.28902856 0.67743641 4294901760
0.7663554 0.61511862 0.37476715 4294901760
0.49163124 0.25387466 0.74896681 4294901760
0.3647328 0.18749541 0.62958521 4294901760
0.54941654 0.8833971 0.35920846 4294901760
0.85657412 0.94644785 0.55836225 4294901760
0.52650052 0.48989072 0.40970534 4294901760
0.61417729 0.81549621 0.15936542 4294901760
0.0575555 0.96793884 0.049479041 4294901760
0.47541413 0.16469474 0.057461642 4294901760
0.14206877 0.068082333 0.86758316 4294901760
0.89547449 0.019447945 0.86707217 4294901760
0.79725724 0.22704649 0.45930886 4294901760
0.88371539 0.42569515 0.90574634 4294901760
0.30942208 0.93271965 0.48106447 4294901760
0.55788815 0.50230974 0.35939661 4294901760
0.42088056 0.3582603 0.90940893 4294901760
0.80937707 0.014149612 0.36473033 4294901760
0.90814143 0.99464393 0.16566284 4294901760
0.55938822 0.46678987 0.20623356 4294901760
0.52539271 0.80952334 0.27759758 4294901760
0.10951186 0.94435412 0.078426443 4294901760
0.93941778 0.52053916 0.61769038 4294901760
0.081340127 0.88085759 0.59158331 4294901760
0.99871379 0.91012084 0.26778227 4294901760
0.99495935 0.95340306 0.33162078 4294901760
0.69444001 0.56134176 0.85907954 4294901760
0.34355041 0.87918967 0.89699847 4294901760
0.28240556 0.76153898 0.90650117 4294901760
0.14938647 0.4135271 0.49772966 4294901760
0.84391618 0.72484273 0.33966416 4294901760
0.27643821 0.30405623 0.4066636 4294901760
0.19260161 0.46574843 0.054875296 4294901760
0.53918254 0.52151197 0.69604701 4294901760
0.41119727 0.53461611 0.97095001 4294901760
0.041619372 0.39749196 0.60025138 4294901760
0.67841369 0.6499607 0.8318873 4294901760
0.80517554 0.48163557 0.27659395 4294901760
0.25801474 0.5621314 0.34743407 4294901760
0.05480646 0.40038571 0.17486082 4294901760
0.86703318 0.30494863 0.31959754 4294901760
0.31902468 0.72608685 0.60110903 4294901760
0.34651652 0.43470767 0.90367842 4294901760
0.43299407 0.4356879 0.44871894 4294901760
0.054090042 0.91799814 0.53787172 4294901760
0.91638094 0.89633077 0.095251597 4294901760
0.39658675 0.81870049 0.46066082 4294901760
0.30507338 0.95879143 0.73114645 4294901760
0.3371436 0.70896423 0.65856737 4294901760
0.044712529 0.30957237 0.96794003 4294901760
0.58226311 0.16058922 0.28784958 4294901760
0.7737875 0.7510376 0.53846538 4294901760
0.2098081 0.57577544 0.55398113 4294901760
0.72149956 0.036147434 0.82083702 4294901760
0.42692944 0.014636565 0.58629441 4294901760
0.70915902 0.29991078 0.20042183 4294901760
0.61130857 0.57347512 0.0804011 4294901760
0.96656656 0.64548099 0.042454045 4294901760
0.9352237 0.63615316 0.87392145 4294901760
0.95761383 0.35891849 0.52236205 4294901760
0.79316348 0.7665447 0.069310188 4294901760
0.22813267 0.12733479 0.50722826 4294901760
0.78575855 0.56867784 0.32724217 4294901760
0.90228403 0.4573091 0.65626973 4294901760
0.30411139 0.42764089 0.64643282 4294901760
0.72428662 0.81045824 0.29725543 4294901760
0.53745133 0.34039357 0.51387143 4294901760
0.55863667 0.62564617 0.87679869 4294901760
0.99007529 0.65208167 0.63734269 4294901760
0.4009172 0.89311379 0.87961847 4294901760
0.8263095 0.054680508 0.9878093 4294901760
0.41358596 0.76975304 0.76962805 4294901760
0.15899698 0.87263203 0.78422046 4294901760
0.77551472 0.69733274 0.52065629 4294901760
0.58780313 0.41387421 0.39152738 4294901760
0.8560555 0.83728933 0.25114772 4294901760
0.007904321 0.58955747 0.49437332 4294901760
0.90499532 0.18066981 0.18031593 4294901760
0.65020275 0.098167032 0.92843735 4294901760
0.3231616 0.019639118 0.73195213 4294901760
0.86933154 0.80948657 0.16920111 4294901760
0.9965257 0.31230971 0.95740807 4294901760
0.64611626 0.27094826 0.42431802 4294901760
0.069253705 0.023407292 0.84068143 4294901760
0.85504729 0.49832574 0.23291434 4294901760
0.64193165 0.77706784 0.99366528 4294901760
0.73397142 0.70425981 0.090127461 4294901760
0.1041282 0.63795865 0.80346572 4294901760
0.12622595 0.62949991 0.66266561 4294901760
0.66794562 0.27230927 0.039843872 4294901760
0.40054083 0.29288381 0.19172639 4294901760
0.51283193 0.87887865 0.78597021 4294901760
0.4907124 0.64592457 0.32413721 4294901760
0.94478959 0.22742541 0.46391958 4294901760
0.85685968 0.71002513 0.19618732 4294901760
0.19194269 0.19024841 0.54362071 4294901760
0.75929391 0.72411025 0.25714701 4294901760
0.70783043 0.93263131 0.42629191 4294901760
0.13347137 0.51090986 0.78022575 4294901760
0.47092476 0.016687695 0.45192134 4294901760
0.97921902 0.4631601 0.21023387 4294901760
0.049980178 0.79741764 0.13643709 4294901760
0.5497787 0.56727773 0.42494923 4294901760
0.9187153 0.47986132 0.83162916 4294901760
0.24696715 0.25289807 0.098908372 4294901760
0.75461662 0.84946477 0.96754038 4294901760
0.9302569 0.33250755 0.099169433 4294901760
0.95549035 0.51757646 0.65177184 4294901760
0.56707841 0.81578916 0.66798866 4294901760
0.41056508 0.47971144 0.23211426 4294901760
0.99296832 0.89510375 0.69682586 4294901760
0.33899069 0.55674869 0.067324385 4294901760
0.44773841 0.95527625 0.5672254 4294901760
0.098510876 0.34565985 0.22127581 4294901760
0.46470588 0.19437796 0.78582656 4294901760
0.57407975 0.77756786 0.40462434 4294901760
0.11374282 0.57010001 0.82296187 4294901760
0.75179189 0.056220617 0.15916751 4294901760
0.85600686 0.61115205 0.12686521 4294901760
0.23984751 0.58741862 0.79058862 4294901760
0.75313514 0.03753864 0.94533759 4294901760
0.39007351 0.08199542 0.38270119 4294901760
0.62275487 0.45444056 0.56663495 4294901760
0.59091955 0.40266839 0.16822152 4294901760
0.34517837 0.46458694 0.85911655 4294901760
0.41327128 0.83719629 0.11841719 4294901760
0.40650192 0.31998056 0.96446264 4294901760
0.49210209 0.56327605 0.52814835 4294901760
0.59283525 0.057988804 0.69875592 4294901760
0.91024143 0.56610876 0.70102751 4294901760
0.7171796 0.2135755 0.13877629 4294901760
0.87732011 0.051570904 0.081483833 4294901760
0.34838343 0.85889226 0.82787442 4294901760
0.22549376 0.85571057 0.18513137 4294901760
0.75613344 0.1240797 0.25010729 4294901760
0.47988549 0.025160471 0.13661568 4294901760
0.68196172 0.96833241 0.49358305 4294901760
0.39344943 0.34961307 0.70077145 4294901760
0.99047595 0.36858028 0.23380893 4294901760
0.69670147 0.25641611 0.52577966 4294901760
0.014302367 0.43744451 0.08362814 4294901760
0.89435399 0.80704451 0.29420963 4294901760
0.062007215 0.63045865 0.73685962 4294901760
0.84379083 0.5774737 0.85152525 4294901760
0.85175115 0.90876687 0.094059058 4294901760
0.35200372 0.11957149 0.40491125 4294901760
0.51146704 0.12990189 0.71304357 4294901760
0.12749237 0.52205509 0.24668442 4294901760
0.32283169 0.66667384 0.66748261 4294901760
0.51057816 0.72964764 0.1701574 4294901760
0.91781926 0.91209525 0.62372196 4294901760
0.53182894 0.40195569 0.96900326 4294901760
0.74813318 0.65015596 0.89238638 4294901760
0.23515156 0.72841436 0.76954359 4294901760
0.29301202 0.050038494 0.91938877 4294901760
0.82128698 0.53365999 0.49140814 4294901760
0.7594353 0.39939779 0.06935332 4294901760
0.11118943 0.25565156 0.96684605 4294901760
0.83071095 0.49264055 0.80762702 4294901760
0.48633513 0.47921333 0.96035933 4294901760
0.69784778 0.95265692 0.38734832 4294901760
0.47793064 0.30532414 0.69732243 4294901760
0.085853145 0.92076182 0.16172989 4294901760
0.30522788 0.85281593 0.93745732 4294901760
0.43639606 0.87370312 0.18639645 4294901760
0.16151425 0.42712519 0.86956429 4294901760
0.93343508 0.18626162 0.65513325 4294901760
0.725416 0.038429245 0.20073636 4294901760
0.21217091 0.69078541 0.73695201 4294901760
0.28987196 0.030025655 0.86113012 4294901760
0.078823723 0.1428619 0.91824043 4294901760
0.91746742 0.32599285 0.5843454 4294901760
0.73147601 0.77082449 0.74169093 4294901760
0.46286759 0.73826516 0.93930024 4294901760
0.098343857 0.77025467 0.66113502 4294901760
0.78262126 0.62827522 0.88960022 4294901760
0.59756184 0.83096528 0.032154676 4294901760
0.32006636 0.61043388 0.62176663 4294901760
0.30855715 0.70403922 0.38979062 4294901760
0.80143291 0.74194145 0.53959048 4294901760
0.017933467 0.071080886 0.31231388 4294901760
0.60735345 0.92655307 0.16137031 4294901760
0.42883942 0.80553627 0.74029803 4294901760
0.21982898 0.16784295 0.9349001 4294901760
0.69286013 0.79340184 0.62846744 4294901760
0.56384432 0.042157523 0.11192513 4294901760
0.19974908 0.090676799 0.57536095 4294901760
0.76561892 0.84913594 0.12411569 4294901760
0.16226305 0.33452302 0.022871025 4294901760
0.74055308 0.11211046 0.19881079 4294901760
0.28003827 0.12699832 0.27110782 4294901760
0.38181508 0.320559 0.92936397 4294901760
0.56796187 0.46423748 0.42942294 4294901760
0.77538073 0.42974919 0.99655586 4294901760
0.91463852 0.43082303 0.84804028 4294901760
0.52925563 0.93442345 0.98302591 4294901760
0.5399155 0.098121338 0.37915486 4294901760
0.14850263 0.15229088 0.46278718 4294901760
0.15300778 0.2840938 0.37592375 4294901760
0.15899307 0.077895433 0.9387297 4294901760
0.93246293 0.01898695 0.72748381 4294901760
0.75048625 0.42021817 0.23888132 4294901760
0.31948832 0.34228617 0.90220726 4294901760
0.67001683 0.32265985 0.32738757 4294901760
0.076530278 0.87236267 0.46100566 4294901760
0.007822765 0.61260647 0.37477788 4294901760
0.010048773 0.4046059 0.40514988 4294901760
0.93568969 0.74671489 0.50974238 4294901760
0.63104504 0.4843604 0.0789221 4294901760
0.74996376 0.95770663 0.99735367 4294901760
0.97455871 0.83179039 0.061047118 4294901760
0.56721878 0.86717576 0.57546008 4294901760
0.80558383 0.54771799 0.22523949 4294901760
0.432895 0.79209167 0.70231086 4294901760
0.38628405 0.087350011 0.34777477 4294901760
0.46925759 0.52140266 0.086463623 4294901760
0.28012866 0.81608373 0.73986346 4294901760
0.11118181 0.12673393 0.53060812 4294901760
0.11075231 0.10286443 0.21589603 4294901760
0.61243159 0.76583326 0.51417083 4294901760
0.0078599053 0.45674619 0.97565389 4294901760
0.29716113 0.83331519 0.67987943 4294901760
0.76650155 0.31097266 0.068720341 4294901760
0.21540006 0.65533161 0.80960941 4294901760
0.1825178 0.82483321 0.65978867 4294901760
0.31091487 0.7453956 0.24732202 4294901760
0.061851338 0.51441258 0.053023562 4294901760
0.73523664 0.92379117 0.36205554 4294901760
0.7721107 0.5523634 0.51945031 4294901760
0.010854168 0.78957909 0.30605495 4294901760
0.61505181 0.75653237 0.37484336 4294901760
0.11236607 0.12565768 0.5589568 4294901760
0.66205937 0.54928941 0.44288242 4294901760
0.44919762 0.63577819 0.99008083 4294901760
0.057968397 0.60376602 0.19818611 4294901760
0.28475946 0.89529824 0.94996214 4294901760
0.71497309 0.82257026 0.7897979 4294901760
0.49018219 0.85270059 0.98414636 4294901760
0.87336868 0.80420506 0.6686582 4294901760
0.24879074 0.99545223 0.26301607 4294901760
0.52041948 0.011922423 0.42152864 4294901760
0.39733499 0.37388852 0.97412997 4294901760
0.065422304 0.14677313 0.17165694 4294901760
0.81515801 0.90183288 0.47578681 4294901760
0.26580396 0.77595788 0.84593135 4294901760
0.67537558 0.075636953 0.19291431 4294901760
0.84020841 0.06132691 0.033055965 4294901760
0.62160873 0.67992264 0.3965998 4294901760
0.78691369 0.82517004 0.44947365 4294901760
0.61095887 0.79723221 0.22943793 4294901760
0.5912891 0.46858925 0.82203919 4294901760
0.15432586 0.0062835356 0.24478421 4294901760
0.093288876 0.22173864 0.83702075 4294901760
0.58119237 0.21016262 0.21103233 4294901760
0.69736427 0.62211192 0.18495432 4294901760
0.24781093 0.58001637 0.20624909 4294901760
0.56141108 0.56378156 0.72827071 4294901760
0.55983841 0.10883959 0.34756103 4294901760
0.88567412 0.98696768 0.06236035 4294901760
0.8899259 0.93524653 0.050586667 4294901760
0.30205613 0.70961809 0.1692065 4294901760
0.27067795 0.60476929 0.92785704 4294901760
0.19011106 0.15399449 0.77142513 4294901760
0.20949799 0.93196791 0.40777099 4294901760
0.14598908 0.25451866 0.39778256 4294901760
0.94846183 0.83211309 0.48317033 4294901760
0.50428754 0.92182928 0.11482511 4294901760
0.43212047 0.83285064 0.76892292 4294901760
0.05708307 0.25989673 0.97294319 4294901760
0.38615954 0.10456058 0.8981905 4294901760
0.98585093 0.0046221949 0.18017302 4294901760
0.097225726 0.15818207 0.21333672 4294901760
0.6751737 0.73598272 0.011690773 4294901760
0.94596523 0.66514307 0.68189704 4294901760
0.025912607 0.092495009 0.80730379 4294901760
0.51321834 0.10586368 0.61824703 4294901760
0.12307384 0.5515216 0.664931 4294901760
0.71964151 0.4973399 0.53829002 4294901760
0.44717753 0.16445446 0.99300617 4294901760
0.37968192 0.99221361 0.089409001 4294901760
0.96170974 0.43556669 0.12332705 4294901760
0.10863029 0.20503342 0.49607536 4294901760
0.05030375 0.54492766 0.69385773 4294901760
0.80415189 0.27336684 0.13195483 4294901760
0.056217838 0.023253901 0.67598265 4294901760
0.53267163 0.52694249 0.93879175 4294901760
0.1577667 0.29483169 0.64208943 4294901760
0.20706573 0.54616094 0.84118116 4294901760
0.91466683 0.39124712 0.99356294 4294901760
0.33616266 0.25585249 0.78274667 4294901760
0.055559825 0.36735988 0.89521343 4294901760
0.92434025 0.90063894 0.03047882 4294901760
0.54140121 0.31262356 0.99410272 4294901760
0.56026477 0.80458188 0.2864002 4294901760
0.7118327 0.10008467 0.96338028 4294901760
0.072159424 0.75634319 0.94112903 4294901760
0.46374291 0.57943785 0.43384412 4294901760
0.24566832 0.17976405 0.65571994 4294901760
0.19137909 0.49337688 0.49769968 4294901760
0.49044561 0.6707654 0.7928099 4294901760
0.76092458 0.34287921 0.50252563 4294901760
0.60423166 0.59575182 0.37795419 4294901760
0.44944289 0.38954461 0.75220758 4294901760
0.79960489 0.77149993 0.10052276 4294901760
0.35067958 0.48107323 0.73909837 4294901760
0.99185121 0.99742901 0.45546547 4294901760
0.32395855 0.039069079 0.38590634 4294901760
0.26689965 0.89236456 0.76574773 4294901760
0.75418079 0.60602105 0.14046647 4294901760
0.72731972 0.60608959 0.51680297 4294901760
0.23882701 0.0095043527 0.97734731 4294901760
0.17306438 0.58456773 0.87846988 4294901760
0.070791483 0.87167168 0.39371869 4294901760
0.63512969 0.91362298 0.46244574 4294901760
0.51611769 0.16469023 0.037315924 4294901760
0.81926978 0.63468218 0.07386601 4294901760
0.48863834 0.3660166 0.44714963 4294901760
0.99948758 0.45004457 0.89222854 4294901760
0.98557901 0.70052689 0.84688169 4294901760
0.89442277 0.15295903 0.68719864 4294901760
0.23671889 0.018903479 0.59227538 4294901760
0.038556758 0.532691 0.65127552 4294901760
0.0529592 0.03123967 0.9379316 4294901760
0.60276556 0.63191026 0.56193626 4294901760
0.27030629 0.4176181 0.76050979 4294901760
0.66585153 0.97553182 0.99721658 4294901760
0.72680587 0.10610329 0.90328449 4294901760
0.69345289 0.42121574 0.25065738 4294901760
0.1998049 0.43677771 0.58296424 4294901760
0.30834642 0.33987468 0.61114365 4294901760
0.33717602 0.38282678 0.52790064 4294901760
0.75548851 0.8824929 0.84178525 4294901760
0.48905075 0.71756572 0.58550411 4294901760
0.24650826 0.044365399 0.32663873 4294901760
0.62262398 0.10389313 0.74038392 4294901760
0.30243912 0.39176384 0.49417847 4294901760
0.69415432 0.46613684 0.65252578 4294901760
0.093612596 0.43594626 0.51600492 4294901760
0.39566162 0.8772915 0.69460404 4294901760
0.61484879 0.36188549 0.11839305 4294901760
0.6896525 0.18170415 0.31507465 4294901760
0.97322196 0.18377843 0.12673007 4294901760
0.55129296 0.82671261 0.76267922 4294901760
0.38339847 0.53866327 0.14294073 4294901760
0.68524677 0.74749154 0.92352504 4294901760
0.079764009 0.80933237 0.45634109 4294901760
0.54556203 0.98666674 0.85630316 4294901760
0.44340631 0.5375452 0.36057279 4294901760
0.82832789 0.2634941 0.31912708 4294901760
0.51074809 0.43094093 0.68670934 4294901760
0.9910751 0.5327794 0.4311834 4294901760
0.73503768 0.67880565 0.93829322 4294901760
0.52995598 0.69296932 0.94415474 4294901760
0.14860158 0.15392129 0.26590085 4294901760
0.57296014 0.45938867 0.30490333 4294901760
0.3310532 0.78036755 0.13600096 4294901760
0.015725948 0.2450625 0.80874687 4294901760
0.20984772 0.28974888 0.27086753 4294901760
0.71504784 0.41349542 0.75467896 4294901760
0.40587661 0.87117583 0.54118007 4294901760
0.18630609 0.56591547 0.51651752 4294901760
0.2209947 0.32445645 0.72180408 4294901760
0.66534221 0.72281057 0.90562248 4294901760
0.396016 0.75181079 0.96612978 4294901760
0.060776334 0.67117876 0.61136639 4294901760
0.31845841 0.66908151 0.76826996 4294901760
0.13626754 0.099885315 0.36857319 4294901760
0.26200026 0.18767658 0.98389357 4294901760
0.94087464 0.50797671 0.96816236 4294901760
0.31030908 0.56267947 0.44486594 4294901760
0.56048512 0.051231239 0.25883853 4294901760
0.52023548 0.13853888 0.82275426 4294901760
0.13003597 0.9772495 0.30016652 4294901760
0.41999167 0.83840269 0.48209763 4294901760
0.090912022 0.73398119 0.71606421 4294901760
0.18530728 0.24861424 0.46170545 4294901760
0.67131257 0.74090892 0.74722975 4294901760
0.82624358 0.69976014 0.69228899 4294901760
0.35032001 0.28732792 0.16701458 4294901760
0.43254554 0.13332175 0.74392486 4294901760
0.54539233 0.50633824 0.59236449 4294901760
0.3893683 0.046276707 0.22197442 4294901760
0.18331107 0.25236064 0.051527981 4294901760
0.37198755 0.034161311 0.10976827 4294901760
0.03338721 0.087802686 0.60954493 4294901760
0.13853948 0.78980374 0.047383472 4294901760
0.34164166 0.35519201 0.36779594 4294901760
0.36916083 0.98101974 0.26485258 4294901760
0.98308116 0.75953174 0.88143736 4294901760
0.8731268 0.89066494 0.2648581 4294901760
0.71007073 0.51106262 0.59054726 4294901760
0.41209009 0.07483352 0.98590398 4294901760
0.046974689 0.69455552 0.34965092 4294901760
0.21494314 0.52940702 0.38864383 4294901760
0.82800639 0.62078977 0.56476462 4294901760
0.77767491 0.068786561 0.84114367 4294901760
0.20203939 0.71375525 0.13152696 4294901760
0.73306155 0.48944965 0.24845491 4294901760
0.24604328 0.15357177 0.68223953 4294901760
0.13553137 0.00070871634 0.98098075 4294901760
0.79833198 0.029730529 0.48661867 4294901760
0.26160944 0.70412064 0.61266059 4294901760
0.2309719 0.97859997 0.28826231 4294901760
0.72403038 0.8703658 0.39594823 4294901760
0.64173102 0.51232827 0.63768041 4294901760
0.053323463 0.57149619 0.72101831 4294901760
0.55158448 0.6624617 0.87137794 4294901760
0.52403349 0.92419678 0.96891117 4294901760
0.81533653 0.48267037 0.5473597 4294901760
0.39191982 0.77457821 0.84042746 4294901760
0.7531575 0.19025488 0.52684885 4294901760
0.1666012 0.8921358 0.3227872 4294901760
0.013558059 0.42530924 0.15294574 4294901760
0.97062659 0.72846437 0.51422626 4294901760
0.43003979 0.36813042 0.2650654 4294901760
0.39575288 0.56907743 0.85113025 4294901760
0.98802781 0.39312345 0.31652287 4294901760
0.79201162 0.58813691 0.39326149 4294901760
0.41830152 0.41821361 0.33833125 4294901760
0.099257439 0.84966606 0.82673353 4294901760
0.32441023 0.63162208 0.49122438 4294901760
0.0044359043 0.89610034 0.071670808 4294901760
0.51120746 0.73755598 0.24788147 4294901760
0.6940273 0.61825341 0.33879763 4294901760
0.90297788 0.22711614 0.87991661 4294901760
0.061848547 0.65772754 0.82049114 4294901760
0.077021211 0.60083002 0.13153148 4294901760
0.14571297 0.049339868 0.84373111 4294901760
0.20775536 0.21156052 0.49703252 4294901760
0.61477208 0.14223014 0.83456624 4294901760
0.35444558 0.32946536 0.015614608 4294901760
0.62195319 0.095100537 0.87002438 4294901760
0.58204681 0.12505056 0.43030918 4294901760
0.9502359 0.86397684 0.14817041 4294901760
0.51718545 0.57212883 0.83939666 4294901760
0.001910597 0.50531572 0.25369063 4294901760
0.37659615 0.98479629 0.96901304 4294901760
0.74805689 0.10045382 0.10338003 4294901760
0.6682812 0.68092513 0.54674208 4294901760
0.96104079 0.027898498 0.18711543 4294901760
0.36721215 0.88348657 0.93750852 4294901760
0.4332948 0.674537 0.93339175 4294901760
0.77301729 0.68458682 0.76663256 4294901760
0.58918303 0.59298331 0.12218142 4294901760
0.40072533 0.64359492 0.19495256 4294901760
0.64070112 0.35475147 0.86416566 4294901760
0.62687957 0.21821666 0.60563517 4294901760
0.36540976 0.057492405 0.91337073 4294901760
0.55353296 0.77157962 0.51262558 4294901760
0.87663269 0.45700875 0.5454163 4294901760
0.23901114 0.26857367 0.76113331 4294901760
0.6816045 0.11951494 0.1641255 4294901760
0.7791878 0.28943101 0.45006102 4294901760
0.51259065 0.6034565 0.1998484 4294901760
0.78469741 0.45036677 0.67737782 4294901760
0.81779242 0.034869198 0.21219207 4294901760
0.21721654 0.92753601 0.086818464 4294901760
0.28667951 0.80840564 0.91166115 4294901760
0.2741234 0.77012742 0.31876242 4294901760
0.7217595 0.98077506 0.026724022 4294901760
0.20764242 0.81797993 0.033506323 4294901760
0.2783114 0.9679839 0.71357048 4294901760
0.22087641 0.96599752 0.53120351 4294901760
0.94964916 0.66227406 0.70254892 4294901760
0.63119155 0.73848289 0.39824575 4294901760
0.15364498 0.57760125 0.62288499 4294901760
0.67857999 0.39931354 0.25801459 4294901760
0.41496301 0.89688593 0.71321064 4294901760
0.32513455 0.80336434 0.98726583 4294901760
0.93279886 0.86223108 0.5015052 4294901760
0.64504796 0.40688345 0.61954868 4294901760
0.4168402 0.32012656 0.58328938 4294901760
0.88348621 0.94914025 0.74447441 4294901760
0.90878427 0.97373521 0.26803008 4294901760
0.074945249 0.48965475 0.093002878 4294901760
0.41524789 0.36408159 0.21737088 4294901760
0.37128955 0.70754921 0.8302086 4294901760
0.3213321 0.67366391 0.96198893 4294901760
0.63696939 0.077145703 0.94406074 4294901760
0.82579863 0.74274081 0.75448531 4294901760
0.5794999 0.86662906 0.56564933 4294901760
0.95172012 0.018835593 0.11823376 4294901760
0.16756852 0.42661759 0.45369035 4294901760
0.47527534 0.47060928 0.025430592 4294901760
0.17725851 0.079942144 0.49286151 4294901760
0.74834752 0.7531848 0.12739959 4294901760
0.15133038 0.20778123 0.35580784 4294901760
0.019028898 0.96289092 0.053852957 4294901760
0.35892397 0.73158824 0.11617682 4294901760
0.75867069 0.19647528 0.68941826 4294901760
0.38150182 0.87586033 0.21211168 4294901760
0.82636088 0.31240392 0.77774692 4294901760
0.85952008 0.97763103 0.11947078 4294901760
0.75258881 0.10537741 0.48956382 4294901760
0.078391753 0.73568058 0.25634015 4294901760
0.32457837 0.31675979 0.54928041 4294901760
0.2026844 0.41507521 0.46608213 4294901760
0.026916126 0.25054082 0.74453229 4294901760
0.4021031 0.55883509 0.75035733 4294901760
0.94320273 0.17826198 0.66410589 4294901760
0.78781122 0.58810699 0.14082903 4294901760
0.78613758 0.48858872 0.26454234 4294901760
0.83520573 0.37065789 0.24327596 4294901760
0.68261635 0.88061655 0.35746616 4294901760
0.47878024 0.34049657 0.93671566 4294901760
0.65766114 0.46037346 0.7413457 4294901760
0.72947109 0.88300133 0.46444127 4294901760
0.50164777 0.95516258 0.072461113 4294901760
0.20688219 0.27347371 0.28148213 4294901760
0.016096644 0.74658227 0.5781908 4294901760
0.36844712 0.35881409 0.99596214 4294901760
0.43222132 0.183908 0.32925576 4294901760
0.70170718 0.055464119 0.24131459 4294901760
0.25371563 0.30354291 0.22012265 4294901760
0.71490663 0.38890615 0.14725047 4294901760
0.8379007 0.70129406 0.0026141047 4294901760
0.95427799 0.46206337 0.3755911 4294901760
0.82330322 0.15261021 0.049646948 4294901760
0.33649072 0.34632292 0.42632943 4294901760
0.52942932 0.26320991 0.77497661 4294901760
0.42081392 0.61289126 0.58982587 4294901760
0.38577375 0.59946752 0.42036411 4294901760
0.83529377 0.53754282 0.3778851 4294901760
0.40278026 0.34267399 0.25057736 4294901760
0.34094244 0.80170882 0.52720571 4294901760
0.67729682 0.62176168 0.33485097 4294901760
0.82769734 0.1157091 0.6679132 4294901760
0.17315035 0.19016582 0.64156961 4294901760
0.86408097 0.50253612 0.99658227 4294901760
0.6902833 0.94639713 0.9471994 4294901760
0.87601537 0.89966244 0.18143554 4294901760
0.18894273 0.25665787 0.73515773 4294901760
0.17851332 0.19103105 0.34048203 4294901760
0.46518728 0.643664 0.032941103 4294901760
0.79654175 0.46550763 0.031224331 4294901760
0.085539065 0.092635438 0.18991321 4294901760
0.13664471 0.57740724 0.1084425 4294901760
0.65248019 0.7765857 0.68603432 4294901760
0.35456914 0.9005546 0.61470973 4294901760
0.46808314 0.65355796 0.070343256 4294901760
0.27887043 0.93775809 0.083281562 4294901760
0.89372396 0.30517107 0.41162795 4294901760
0.9644413 0.30487534 0.98808855 4294901760
0.91111171 0.40834165 0.14189315 4294901760
0.62137252 0.23962913 0.14233048 4294901760
0.21798703 0.19734119 0.31728017 4294901760
0.71878546 0.34199557 0.74089509 4294901760
0.22770444 0.0077186022 0.33399847 4294901760
0.22580588 0.91514045 0.73742205 4294901760
0.18950404 0.93385512 0.55022651 4294901760
0.051594827 0.48678467 0.059684034 4294901760
0.95876145 0.70448703 0.8984732 4294901760
0.66298813 0.67521232 0.56616217 4294901760
0.66350996 0.57539243 0.6075598 4294901760
0.15885773 0.82936138 0.14877932 4294901760
0.60777223 0.0030990271 0.29967356 4294901760
0.30425283 0.66382015 0.83945709 4294901760
0.9324348 0.90043807 0.00061249977 4294901760
0.46794254 0.0050560357 0.20065974 4294901760
0.65311694 0.18365608 0.74430567 4294901760
0.13393708 0.58311272 0.78923249 4294901760
0.22304924 0.88195437 0.30222026 4294901760
0.79708236 0.63607758 0.3772465 4294901760
0.98223275 0.35917851 0.49817199 4294901760
0.42925808 0.034345917 0.13488434 4294901760
0.83038515 0.35797113 0.77090865 4294901760
0.16370215 0.98424315 0.94536567 4294901760
0.06436225 0.023784718 0.22199766 4294901760
0.422629 0.97944492 0.28449535 4294901760
0.086649008 0.88887727 0.64446801 4294901760
0.85257947 0.081682965 0.53090942 4294901760
0.40314752 0.56465113 0.35561869 4294901760
0.47657427 0.5116846 0.89724451 4294901760
0.79781395 0.053485196 0.17829023 4294901760
0.12626716 0.95846468 0.4147577 4294901760
0.61872232 0.046140723 0.24750237 4294901760
0.63543457 0.43551359 0.57570547 4294901760
0.22999649 0.11308572 0.84344608 4294901760
0.65131354 0.52110565 0.81111276 4294901760
0.3464728 0.72930157 0.95387524 4294901760
0.8062824 0.073746473 0.95046037 4294901760
0.72232693 0.84157217 0.75969177 4294901760
0.45737347 0.46462238 0.87308824 4294901760
0.20799166 0.794765 0.13614181 4294901760
0.4754613 0.88696855 0.86415803 4294901760
0.81021827 0.38247773 0.14058834 4294901760
0.5580945 0.80255336 0.33866733 4294901760
0.76784849 0.76081163 0.10459005 4294901760
0.2379961 0.72733206 0.2522603 4294901760
0.2020898 0.69876349 0.70219624 4294901760
0.97416759 0.33685511 0.87654752 4294901760
0.91515428 0.62000322 0.69032806 4294901760
0.98536098 0.85817724 0.49507916 4294901760
0.046704225 0.21004976 0.38663533 4294901760
0.44032323 0.53727752 0.87316847 4294901760
0.060398974 0.36749911 0.66939241 4294901760
0.1885528 0.071608506 0.38603294 4294901760
0.13154434 0.778359 0.099237688 4294901760
0.70804101 0.84302801 0.16204247 4294901760
0.56996989 0.64103109 0.76104754 4294901760
0.73434395 0.8067224 0.63734227 4294901760
0.4814072 0.077899903 0.89384031 4294901760
0.89492249 0.085986689 0.8301689 4294901760
0.026459739 0.79831606 0.91000366 4294901760
0.88696474 0.59442717 0.90311277 4294901760
0.64694691 0.85464954 0.4599992 4294901760
0.87655604 0.4824701 0.57400119 4294901760
0.72208744 0.97123122 0.14298087 4294901760
0.22426374 0.22349204 0.53347707 4294901760
0.61419928 0.89756489 0.62830472 4294901760
0.47557083 0.031127453 0.59288138 4294901760
0.47527602 0.40047544 0.89083153 4294901760
0.29216337 0.82845187 0.0095132031 4294901760
0.67417371 0.37121165 0.65413278 4294901760
0.0077273101 0.76444602 0.55540407 4294901760
0.32267135 0.011871273 0.49203312 4294901760
0.79743755 0.7400859 0.098069489 4294901760
0.36614287 0.60216182 0.41164613 4294901760
0.071754754 0.61167878 0.99726796 4294901760
0.60786277 0.14565016 0.34252539 4294901760
0.2452424 0.44260803 0.68356931 4294901760
0.85523111 0.043818928 0.8709349 4294901760
0.39192373 0.56467921 0.20274428 4294901760
0.26086897 0.36061972 0.87317121 4294901760
0.58950114 0.88415319 0.20959035 4294901760
0.55943298 0.27896744 0.9058423 4294901760
0.25743437 0.16412348 0.17557906 4294901760
0.21018936 0.93872976 0.80580318 4294901760
0.094515257 0.04129767 0.80871946 4294901760
0.26017624 0.98721516 0.64240444 4294901760
0.1878542 0.0371993 0.49100071 4294901760
0.19314292 0.76493818 0.521007 4294901760
0.86814529 0.14825675 0.60547137 4294901760
0.82674718 0.92000294 0.77628446 4294901760
0.046873767 0.56954503 0.2185847 4294901760
0.75659406 0.8008247 0.54239494 4294901760
0.83294374 0.0099642342 0.6944896 4294901760
0.72450984 0.82208127 0.13461506 4294901760
0.46486554 0.74902666 0.5921663 4294901760
0.80206931 0.44885334 0.42188087 4294901760
0.58722818 0.055004254 0.93881434 4294901760
0.72639024 0.08362297 0.68725806 4294901760
0.99514395 0.97050178 0.13985696 4294901760
0.7264182 0.80878681 0.42136163 4294901760
0.45228687 0.34279865 0.28284451 4294901760
0.71780896 0.38885975 0.41403702 4294901760
0.93457687 0.033839025 0.25791925 4294901760
0.061919961 0.96704221 0.9006831 4294901760
0.43324861 0.40938634 0.86317927 4294901760
0.38781026 0.66017354 0.55685771 4294901760
0.98537934 0.14469522 0.56241035 4294901760
0.077005476 0.80518109 0.24689387 4294901760
0.53943592 0.74822652 0.78517836 4294901760
0.049723767 0.55038393 0.12374093 4294901760
0.32289997 0.76000297 0.10723359 4294901760
0.56577438 0.20297894 0.68928385 4294901760
0.69254732 0.96838623 0.50576758 4294901760
0.86151963 0.39081702 0.82128292 4294901760
0.16375215 0.53247297 0.68506235 4294901760
0.19470677 0.051511541 0.034491856 4294901760
0.91725612 0.76939344 0.13041687 4294901760
0.72657543 0.28959927 0.22884637 4294901760
0.086712554 0.54215866 0.092197455 4294901760
0.70288479 0.94427401 0.9884215 4294901760
0.69091934 0.68755502 0.062869243 4294901760
0.4071959 0.70226645 0.12850904 4294901760
0.51305467 0.69660902 0.17242631 4294901760
0.82699335 0.69487894 0.51178539 4294901760
0.96014017 0.43534091 0.088133864 4294901760
0.44044474 0.9469167 0.42608571 4294901760
0.64251602 0.47352463 0.13583075 4294901760
0.099986151 0.71387166 0.3543545 4294901760
0.88765538 0.33277822 0.41640502 4294901760
0.035250556 0.066458404 0.54685748 4294901760
0.66493058 0.52393895 0.11241531 4294901760
0.10616242 0.18040618 0.17729318 4294901760
0.30596703 0.80836266 0.41547018 4294901760
0.96163428 0.32228357 0.9156844 4294901760
0.99731767 0.90901273 0.32710281 4294901760
0.3569968 0.18913373 0.042466212 4294901760
0.1036126 0.35237053 0.0096902978 4294901760
0.14507589 0.92548621 0.91088003 4294901760
0.51502234 0.85539895 0.25712669 4294901760
0.89563495 0.14541124 0.082464844 4294901760
0.11085414 0.12328207 0.81093001 4294901760
0.66656196 0.84510124 0.9124819 4294901760
0.87573445 0.71733773 0.11023633 4294901760
0.25949916 0.7096805 0.096516378 4294901760
0.85794383 0.50824159 0.74950385 4294901760
0.20962857 0.22285399 0.13400126 4294901760
0.7477138 0.47727156 0.63134283 4294901760
0.20288655 0.58320957 0.9026528 4294901760
0.88314557 0.28018531 0.40558776 4294901760
0.97736621 0.77010447 0.0093536181 4294901760
0.91565979 0.28889075 0.67513263 4294901760
0.014993616 0.63935214 0.032375127 4294901760
0.46406192 0.46503335 0.60294485 4294901760
0.91454268 0.91615689 0.3500151 4294901760
0.64103514 0.17555757 0.90229279 4294901760
0.77340114 0.89166182 0.87564629 4294901760
0.49825794 0.086535238 0.87201363 4294901760
0.2084538 0.53800088 0.81290871 4294901760
0.38243741 0.38394782 0.77018696 4294901760
0.16030975 0.51357472 0.7568025 4294901760
0.23016126 0.62410563 0.83951581 4294901760
0.61742496 0.63214183 0.65647471 4294901760
0.86465198 0.32533839 0.61716467 4294901760
0.039829358 0.21602888 0.39964965 4294901760
0.27667272 0.049373124 0.60965449 4294901760
0.46061346 0.82842231 0.25674897 4294901760
0.66381007 0.89996642 0.46255511 4294901760
0.26085308 0.43062547 0.60680962 4294901760
0.31299534 0.92264396 0.63305598 4294901760
0.36154321 0.89083284 0.71815389 4294901760
0.050428364 0.49742413 0.52240103 4294901760
0.079648763 0.35738412 0.84385872 4294901760
0.26620555 0.72294289 0.60213041 4294901760
0.62136012 0.58822542 0.89824629 4294901760
0.55941755 0.60847807 0.20369126 4294901760
0.67932999 0.91401708 0.20167635 4294901760
0.77738559 0.56451231 0.40711316 4294901760
0.99818879 0.67464483 0.97824109 4294901760
0.3522402 0.34993657 0.78066075 4294901760
0.20506799 0.59108073 0.24218762 4294901760
0.69703883 0.7659514 0.5723002 4294901760
0.7699101 0.24627592 0.36526006 4294901760
0.3926993 0.40093675 0.55591124 4294901760
0.30817968 0.78364199 0.49506319 4294901760
0.033948611 0.13256137 0.16731067 4294901760
0.14304294 0.07510709 0.46074897 4294901760
0.89862818 0.71179098 0.23582818 4294901760
0.28668594 0.68048692 0.57750726 4294901760
0.31681749 0.89223701 0.18243308 4294901760
0.11162234 0.67137092 0.32583347 4294901760
0.35405284 0.45961511 0.30430824 4294901760
0.60125065 0.96975678 0.82446218 4294901760
0.71621573 0.83156425 0.068902984 4294901760
0.55638897 0.95219767 0.84423196 4294901760
0.60150373 0.88840926 0.246553 4294901760
0.62820733 0.021291286 0.021916779 4294901760
0.40683421 0.81618476 0.97382933 4294901760
0.91226429 0.73157626 0.12437103 4294901760
0.76097596 0.89573765 0.81834185 4294901760
0.42928597 0.12441873 0.074422635 4294901760
0.032309249 0.20241112 0.98436362 4294901760
0.49703699 0.6707437 0.37467057 4294901760
0.91224808 0.048791386 0.85903341 4294901760
0.92674625 0.097297765 0.84584272 4294901760
0.053048171 0.36062109 0.88426608 4294901760
0.19014786 0.78506595 0.80937111 4294901760
0.6683684 0.45542005 0.049998842 4294901760
0.054292016 0.2047637 0.99208969 4294901760
0.19358145 0.85786068 0.41374049 4294901760
0.78710926 0.027041281 0.83784735 4294901760
0.65889633 0.69743228 0.53387678 4294901760
0.084910452 0.1503002 0.87077022 4294901760
0.0089964429 0.35182768 0.16208072 4294901760
0.43947387 0.27135217 0.12802005 4294901760
0.5570299 0.14295255 0.39299232 4294901760
0.56114244 0.76736516 0.32128841 4294901760
0.60907054 0.15006936 0.63004291 4294901760
0.43382797 0.233788 0.39795727 4294901760
0.16009995 0.060124457 0.89675009 4294901760
0.33428636 0.68643826 0.13592359 4294901760
0.22428644 0.8696776 0.1374664 4294901760
0.39485905 0.46881676 0.10939151 4294901760
0.84038985 0.47770029 0.39683297 4294901760
0.21788603 0.69794738 0.22110035 4294901760
0.71330029 0.27876318 0.64297014 4294901760
0.36380354 0.059874769 0.95966625 4294901760
0.87836224 0.77564579 0.45030922 4294901760
0.46832308 0.15670109 0.14395662 4294901760
0.29655886 0.027950997 0.52797061 4294901760
0.9894917 0.52648014 0.15045291 4294901760
0.58091784 0.99590909 0.99726778 4294901760
0.77987057 0.29357445 0.55384237 4294901760
0.042221334 0.45482364 0.57811844 4294901760
0.84826016 0.11810854 0.45648569 4294901760
0.37906384 0.016276542 0.74091363 4294901760
0.45759365 0.24732564 0.4317112 4294901760
0.23178507 0.38601246 0.76637715 4294901760
0.34063587 0.81609166 0.97791767 4294901760
0.17393807 0.0062359832 0.88233322 4294901760
0.24688859 0.44950974 0.18864846 4294901760
0.32119453 0.66360462 0.93220991 4294901760
0.039660074 0.83478796 0.64815563 4294901760
0.93730003 0.25958273 0.65942514 4294901760
0.087325543 0.42385802 0.94006073 4294901760
0.12340239 0.072121337 0.85325444 4294901760
0.6329186 0.91214752 0.17253016 4294901760
0.35839462 0.24129149 0.98977482 4294901760
0.76385951 0.20415163 0.97361392 4294901760
0.3581492 0.63833183 0.066391811 4294901760
0.65626132 0.50324994 0.79558831 4294901760
0.69651622 0.32096249 0.68253452 4294901760
0.87298751 0.25285682 0.98324186 4294901760
0.53161919 0.68163854 0.12490137 4294901760
0.62323087 0.89957732 0.7991221 4294901760
0.13669944 0.71452665 0.11965694 4294901760
0.63573825 0.42606187 0.5453251 4294901760
0.24936958 0.8598972 0.19395238 4294901760
0.029496236 0.88299692 0.85293901 4294901760
0.34084114 0.7570309 0.97890866 4294901760
0.59030294 0.74724305 0.37849799 4294901760
0.00059370918 0.63532603 0.53887755 4294901760
0.50185442 0.5002777 0.55241799 4294901760
0.49724892 0.49128565 0.2188035 4294901760
0.021533625 0.24529628 0.22253902 4294901760
0.48088136 0.38579297 0.1025504 4294901760
0.19943534 0.90173578 0.36705464 4294901760
0.30806705 0.49243069 0.92990464 4294901760
0.65161705 0.87914771 0.98008865 4294901760
0.061259095 0.67561448 0.2819452 4294901760
0.53437793 0.12306935 0.74618155 4294901760
0.088454843 0.70324141 0.14570636 4294901760
0.40386349 0.29042158 0.89695728 4294901760
0.61560714 0.063940108 0.46217829 4294901760
0.58178419 0.94903517 0.96239531 4294901760
0.5917818 0.81536794 0.22896108 4294901760
0.88374829 0.70123607 0.74420285 4294901760
0.47244969 0.6893732 0.3993665 4294901760
0.49321187 0.61287528 0.064579047 4294901760
0.69146997 0.48137093 0.94668043 4294901760
0.28377068 0.76179355 0.096882477 4294901760
0.57536441 0.13896738 0.68589079 4294901760
0.25311777 0.74946821 0.14782886 4294901760
0.75489849 0.6837278 0.031211441 4294901760
0.10763646 0.42031094 0.28611308 4294901760
0.69383979 0.58134854 0.12709127 4294901760
0.31002253 0.62055343 0.15037261 4294901760
0.31687996 0.22539932 0.18460061 4294901760
0.7260778 0.4769741 0.14729252 4294901760
0.78397387 0.26997402 0.023917865 4294901760
0.62497997 0.25790289 0.42592034 4294901760
0.92028457 0.87041646 0.707066 4294901760
0.89082181 0.58034492 0.03625147 4294901760
0.58316255 0.21719307 0.8524121 4294901760
0.9874593 0.83428049 0.11575615 4294901760
0.061098434 0.83279282 0.86024368 4294901760
0.21196133 0.41562915 0.5023849 4294901760
0.55279285 0.17690492 0.20770384 4294901760
0.25520411 0.70350701 0.13950665 4294901760
0.77786541 0.39107692 0.29303241 4294901760
0.22864065 0.083528645 0.23718016 4294901760
0.79960543 0.7302711 0.91062903 4294901760
0.32750994 0.62206256 0.93928701 4294901760
0.060278244 0.91549647 0.48924163 4294901760
0.17337382 0.91800392 0.89895219 4294901760
0.45417532 0.4566116 0.35103831 4294901760
0.79968965 0.6997456 0.57537037 4294901760
0.97033584 0.63192707 0.27088305 4294901760
0.91717905 0.99987996 0.10397284 4294901760
0.39162809 0.63760936 0.15723613 4294901760
0.49580267 0.97599673 0.20770326 4294901760
0.6285044 0.94867468 0.20230342 4294901760
0.80289805 0.85400844 0.60538125 4294901760
0.22869124 0.8688764 0.44446039 4294901760
0.60958946 0.96297318 0.99819064 4294901760
0.92726815 0.88182318 0.93799645 4294901760
0.12123985 0.84903485 0.25965381 4294901760
0.92921096 0.57923335 0.91695511 4294901760
0.95677185 0.58653253 0.45018935 4294901760
0.34929451 0.34259295 0.13478909 4294901760
0.11161957 0.85188687 0.43823957 4294901760
0.64778954 0.63498139 0.64583743 4294901760
0.40113133 0.20873165 0.62849766 4294901760
0.73484766 0.28182924 0.54008919 4294901760
0.51040739 0.62843454 0.084170833 4294901760
0.74120349 0.74245596 0.77734727 4294901760
0.53733569 0.47164339 0.63627845 4294901760
0.84080619 0.65360558 0.64669716 4294901760
0.34910956 0.91647238 0.97138983 4294901760
0.59073287 0.6121704 0.99674445 4294901760
0.28021625 0.39620835 0.72990507 4294901760
0.17427762 0.43540221 0.12549536 4294901760
0.85817915 0.32670411 0.49954316 4294901760
0.72998214 0.28926384 0.19105646 4294901760
0.90652877 0.64333689 0.58277857 4294901760
0.72477204 0.4787229 0.49825478 4294901760
0.57265782 0.99490482 0.58905959 4294901760
0.22505257 0.38586253 0.068534046 4294901760
0.88863277 0.22950245 0.66089135 4294901760
0.11634362 0.11123227 0.73647946 4294901760
0.87814265 0.22409597 0.53073835 4294901760
0.87697411 0.35714051 0.41543698 4294901760
0.0023877127 0.41677597 0.33854094 4294901760
0.67005092 0.51816648 0.77958161 4294901760
0.96386647 0.68248546 0.98481333 4294901760
0.93800163 0.40750384 0.21101832 4294901760
0.41593298 0.48554978 0.61657715 4294901760
0.50376719 0.35522398 0.15250161 4294901760
0.84595937 0.27932289 0.12235143 4294901760
0.76104695 0.58306444 0.70250672 4294901760
0.16267622 0.55989152 0.92626399 4294901760
0.5737204 0.87895942 0.99136406 4294901760
0.67242396 0.43563393 0.71660382 4294901760
0.067230687 0.016945451 0.95618612 4294901760
0.52933741 0.45198166 0.0069394195 4294901760
0.76833683 0.76302075 0.5883438 4294901760
0.60890996 0.96402019 0.22217922 4294901760
0.86592156 0.28034639 0.5106774 4294901760
0.010850104 0.25123486 0.48617643 4294901760
0.56988293 0.75473571 0.34275138 4294901760
0.14350531 0.04075966 0.05422733 4294901760
0.062726893 0.86095911 0.026179038 4294901760
0.46553984 0.46204415 0.86519706 4294901760
0.095979325 0.026593894 0.49516687 4294901760
0.33284363 0.56475049 0.45235941 4294901760
0.52733392 0.17688838 0.52018636 4294901760
0.060034856 0.91309184 0.84179914 4294901760
0.47511637 0.93064106 0.38397503 4294901760
0.018094292 0.55051988 0.6730653 4294901760
0.045956176 0.47980955 0.26258409 4294901760
0.27678782 0.77610141 0.22183302 4294901760
0.33935848 0.52946413 0.51383454 4294901760
0.82903308 0.039140068 0.63674265 4294901760
0.57523155 0.16889702 0.20042565 4294901760
0.24928029 0.86963242 0.61808681 4294901760
0.86573446 0.59033233 0.36868149 4294901760
0.71781558 0.2253831 0.35140625 4294901760
0.87242055 0.92061836 0.48988244 4294901760
0.04017406 0.66492933 0.50459737 4294901760
0.86440402 0.44618219 0.88477421 4294901760
0.53260642 0.96848959 0.18383425 4294901760
0.35721505 0.7668252 0.96744913 4294901760
0.7882635 0.49498421 0.27581933 4294901760
0.64102036 0.17242025 0.8549825 4294901760
0.42143512 0.41751572 0.37969559 4294901760
0.47478837 0.80514526 0.2643581 4294901760
0.11184781 0.35553068 0.21543381 4294901760
0.15298329 0.31800023 0.52037752 4294901760
0.71637321 0.7237767 0.63457596 4294901760
0.29950899 0.61543238 0.24718268 4294901760
0.5938713 0.74257886 0.58639348 4294901760
0.1766614 0.056710545 0.83740169 4294901760
0.97371495 0.7192961 0.49851859 4294901760
0.37930354 0.36155471 0.45913368 4294901760
0.26290521 0.12706499 0.04275218 4294901760
0.78674561 0.85915577 0.36247641 4294901760
0.20512822 0.0010895819 0.62482005 4294901760
0.86271262 0.38824871 0.55175751 4294901760
0.4770031 0.98613262 0.43901205 4294901760
0.37652728 0.8573944 0.9431259 4294901760
0.85825253 0.37092337 0.19976966 4294901760
0.91494679 0.26418594 0.74956006 4294901760
0.25754362 0.7233777 0.25355446 4294901760
0.71118748 0.19621214 0.19384697 4294901760
0.38823575 0.78939432 0.72709405 4294901760
0.40290055 0.74289435 0.2855666 4294901760
0.40048796 0.51159018 0.1923507 4294901760
0.75857681 0.40774831 0.90462351 4294901760
0.90257567 0.04820431 0.035962403 4294901760
0.57256162 0.19618224 0.70575267 4294901760
0.66294426 0.036459621 0.64557362 4294901760
0.31502289 0.80430901 0.84189475 4294901760
0.66101533 0.32188964 0.90332067 4294901760
0.74228698 0.9282456 0.7776801 4294901760
0.12677388 0.63432878 0.32918236 4294901760
