# .PCD v0.7 - Point Cloud Data file format
VERSION 0.7
FIELDS x y z rgb
SIZE 4 4 4 4
TYPE F F F U
COUNT 1 1 1 1
WIDTH 1029
HEIGHT 1
VIEWPOINT 0 0 0 1 0 0 0
POINTS 1029
DATA ascii
-0.50974959 0.28407207 -0.23897241 4294901760
-0.50974959 0.28407207 0.042968452 4294901760
-0.50974959 0.28407207 0.068599448 4294901760
-0.50974959 0.30970308 -0.26460341 4294901760
-0.50974959 0.30970308 -0.23897241 4294901760
-0.50974959 0.30970308 0.042968452 4294901760
-0.50974959 0.33533403 -0.26460341 4294901760
-0.50974959 0.33533403 -0.23897241 4294901760
-0.50974959 0.36096501 -0.26460341 4294901760
-0.50974959 0.36096501 -0.23897241 4294901760
-0.50974959 0.38659602 -0.26460341 4294901760
-0.50974959 0.38659602 -0.23897241 4294901760
-0.50974959 0.412227 -0.26460341 4294901760
-0.50974959 0.412227 -0.23897241 4294901760
-0.50974959 0.43785802 -0.26460341 4294901760
-0.50974959 0.43785802 -0.23897241 4294901760
-0.50974959 0.463489 -0.26460341 4294901760
-0.50974959 0.463489 -0.23897241 4294901760
-0.50974959 0.48911998 -0.26460341 4294901760
-0.50974959 0.48911998 -0.23897241 4294901760
-0.50974959 0.51475102 -0.26460341 4294901760
-0.50974959 0.51475102 -0.23897241 4294901760
-0.50974959 0.54038197 -0.26460341 4294901760
-0.50974959 0.54038197 -0.23897241 4294901760
-0.50974959 0.56601292 -0.26460341 4294901760
-0.50974959 0.56601292 -0.23897241 4294901760
-0.50974959 0.59164393 -0.26460341 4294901760
-0.50974959 0.59164393 -0.23897241 4294901760
-0.50974959 0.61727488 -0.26460341 4294901760
-0.50974959 0.61727488 -0.23897241 4294901760
-0.50974959 0.64290595 -0.26460341 4294901760
-0.50974959 0.64290595 -0.23897241 4294901760
-0.50974959 0.6685369 -0.26460341 4294901760
-0.50974959 0.6685369 -0.23897241 4294901760
-0.50974959 0.69416785 -0.26460341 4294901760
-0.50974959 0.69416785 -0.23897241 4294901760
-0.48411849 -0.56175053 -0.18771043 4294901760
-0.48411849 -0.56175053 -0.16207944 4294901760
-0.48411849 -0.56175053 -0.13644846 4294901760
-0.48411849 -0.56175053 0.042968452 4294901760
-0.48411849 -0.56175053 0.19675438 4294901760
-0.48411849 -0.56175053 0.40180227 4294901760
-0.48411849 -0.53611946 -0.18771043 4294901760
-0.48411849 -0.53611946 -0.16207944 4294901760
-0.48411849 -0.53611946 0.042968452 4294901760
-0.48411849 -0.53611946 0.42743328 4294901760
-0.48411849 -0.51048851 -0.18771043 4294901760
-0.48411849 -0.51048851 -0.16207944 4294901760
-0.48411849 -0.51048851 0.45306426 4294901760
-0.48411849 -0.48485756 -0.18771043 4294901760
-0.48411849 -0.48485756 -0.16207944 4294901760
-0.48411849 -0.48485756 0.47869521 4294901760
-0.48411849 -0.45922658 -0.18771043 4294901760
-0.48411849 -0.45922658 -0.16207944 4294901760
-0.48411849 -0.45922658 0.50432622 4294901760
-0.48411849 -0.43359563 -0.18771043 4294901760
-0.48411849 -0.43359563 -0.16207944 4294901760
-0.48411849 -0.43359563 0.52995723 4294901760
-0.48411849 -0.40796453 -0.18771043 4294901760
-0.48411849 -0.40796453 -0.16207944 4294901760
-0.48411849 -0.40796453 0.55558819 4294901760
-0.48411849 -0.38233358 -0.18771043 4294901760
-0.48411849 -0.38233358 -0.16207944 4294901760
-0.48411849 -0.38233358 0.58121914 4294901760
-0.48411849 -0.3567026 -0.21334143 4294901760
-0.48411849 -0.3567026 -0.18771043 4294901760
-0.48411849 -0.3567026 0.60685015 4294901760
-0.48411849 -0.33107165 -0.21334143 4294901760
-0.48411849 -0.33107165 -0.18771043 4294901760
-0.48411849 -0.33107165 0.63248122 4294901760
-0.48411849 -0.30544063 -0.21334143 4294901760
-0.48411849 -0.30544063 -0.18771043 4294901760
-0.48411849 -0.30544063 0.40180227 4294901760
-0.48411849 -0.30544063 0.63248122 4294901760
-0.48411849 -0.27980965 -0.21334143 4294901760
-0.48411849 -0.27980965 -0.18771043 4294901760
-0.48411849 -0.27980965 0.40180227 4294901760
-0.48411849 -0.27980965 0.60685015 4294901760
-0.48411849 -0.25417864 -0.21334143 4294901760
-0.48411849 -0.25417864 -0.18771043 4294901760
-0.48411849 -0.25417864 0.40180227 4294901760
-0.48411849 -0.25417864 0.55558819 4294901760
-0.48411849 -0.25417864 0.58121914 4294901760
-0.48411849 -0.22854768 -0.21334143 4294901760
-0.48411849 -0.22854768 -0.18771043 4294901760
-0.48411849 -0.22854768 0.40180227 4294901760
-0.48411849 -0.22854768 0.52995723 4294901760
-0.48411849 -0.20291671 -0.21334143 4294901760
-0.48411849 -0.20291671 -0.18771043 4294901760
-0.48411849 -0.20291671 0.40180227 4294901760
-0.48411849 -0.20291671 0.50432622 4294901760
-0.48411849 -0.17728569 -0.21334143 4294901760
-0.48411849 -0.17728569 -0.18771043 4294901760
-0.48411849 -0.17728569 0.40180227 4294901760
-0.48411849 -0.17728569 0.47869521 4294901760
-0.48411849 -0.15165472 -0.23897241 4294901760
-0.48411849 -0.15165472 -0.21334143 4294901760
-0.48411849 -0.15165472 0.40180227 4294901760
-0.48411849 -0.15165472 0.45306426 4294901760
-0.48411849 -0.12602369 -0.23897241 4294901760
-0.48411849 -0.12602369 -0.21334143 4294901760
-0.48411849 -0.12602369 0.40180227 4294901760
-0.48411849 -0.12602369 0.42743328 4294901760
-0.48411849 -0.10039274 -0.23897241 4294901760
-0.48411849 -0.10039274 -0.21334143 4294901760
-0.48411849 -0.10039274 0.40180227 4294901760
-0.48411849 -0.074761771 -0.23897241 4294901760
-0.48411849 -0.074761771 -0.21334143 4294901760
-0.48411849 -0.074761771 0.042968452 4294901760
-0.48411849 -0.074761771 0.37617132 4294901760
-0.48411849 -0.074761771 0.40180227 4294901760
-0.48411849 -0.049130749 -0.26460341 4294901760
-0.48411849 -0.049130749 -0.23897241 4294901760
-0.48411849 -0.049130749 -0.21334143 4294901760
-0.48411849 -0.049130749 -0.18771043 4294901760
-0.48411849 -0.049130749 -0.16207944 4294901760
-0.48411849 -0.049130749 -0.13644846 4294901760
-0.48411849 -0.049130749 -0.11081748 4294901760
-0.48411849 -0.049130749 -0.085186489 4294901760
-0.48411849 -0.049130749 -0.059555493 4294901760
-0.48411849 -0.049130749 -0.033924513 4294901760
-0.48411849 -0.049130749 -0.0082935346 4294901760
-0.48411849 -0.049130749 0.017337458 4294901760
-0.48411849 -0.049130749 0.042968452 4294901760
-0.48411849 -0.049130749 0.068599448 4294901760
-0.48411849 -0.049130749 0.094230436 4294901760
-0.48411849 -0.049130749 0.1198614 4294901760
-0.48411849 -0.049130749 0.14549239 4294901760
-0.48411849 -0.049130749 0.17112339 4294901760
-0.48411849 -0.049130749 0.19675438 4294901760
-0.48411849 -0.049130749 0.22238538 4294901760
-0.48411849 -0.049130749 0.24801637 4294901760
-0.48411849 -0.049130749 0.27364734 4294901760
-0.48411849 -0.049130749 0.29927835 4294901760
-0.48411849 -0.049130749 0.35054028 4294901760
-0.48411849 -0.049130749 0.40180227 4294901760
-0.48411849 -0.023499785 -0.23897241 4294901760
-0.48411849 -0.023499785 -0.21334143 4294901760
-0.48411849 -0.023499785 0.042968452 4294901760
-0.48411849 -0.023499785 0.32490933 4294901760
-0.48411849 -0.023499785 0.40180227 4294901760
-0.48411849 0.0021312388 -0.23897241 4294901760
-0.48411849 0.0021312388 -0.21334143 4294901760
-0.48411849 0.0021312388 0.042968452 4294901760
-0.48411849 0.0021312388 0.40180227 4294901760
-0.48411849 0.027762203 -0.23897241 4294901760
-0.48411849 0.027762203 -0.21334143 4294901760
-0.48411849 0.027762203 0.042968452 4294901760
-0.48411849 0.027762203 0.068599448 4294901760
-0.48411849 0.027762203 0.094230436 4294901760
-0.48411849 0.027762203 0.1198614 4294901760
-0.48411849 0.027762203 0.14549239 4294901760
-0.48411849 0.027762203 0.17112339 4294901760
-0.48411849 0.027762203 0.40180227 4294901760
-0.48411849 0.053393167 -0.23897241 4294901760
-0.48411849 0.053393167 -0.21334143 4294901760
-0.48411849 0.053393167 0.042968452 4294901760
-0.48411849 0.053393167 0.17112339 4294901760
-0.48411849 0.053393167 0.40180227 4294901760
-0.48411849 0.079024188 -0.23897241 4294901760
-0.48411849 0.079024188 -0.21334143 4294901760
-0.48411849 0.079024188 0.042968452 4294901760
-0.48411849 0.079024188 0.17112339 4294901760
-0.48411849 0.079024188 0.40180227 4294901760
-0.48411849 0.10465515 -0.26460341 4294901760
-0.48411849 0.10465515 -0.23897241 4294901760
-0.48411849 0.10465515 0.042968452 4294901760
-0.48411849 0.10465515 0.17112339 4294901760
-0.48411849 0.10465515 0.37617132 4294901760
-0.48411849 0.13028617 -0.26460341 4294901760
-0.48411849 0.13028617 -0.23897241 4294901760
-0.48411849 0.13028617 0.042968452 4294901760
-0.48411849 0.13028617 0.14549239 4294901760
-0.48411849 0.13028617 0.35054028 4294901760
-0.48411849 0.15591714 -0.26460341 4294901760
-0.48411849 0.15591714 -0.23897241 4294901760
-0.48411849 0.15591714 -0.21334143 4294901760
-0.48411849 0.15591714 -0.18771043 4294901760
-0.48411849 0.15591714 -0.16207944 4294901760
-0.48411849 0.15591714 -0.13644846 4294901760
-0.48411849 0.15591714 -0.11081748 4294901760
-0.48411849 0.15591714 -0.085186489 4294901760
-0.48411849 0.15591714 -0.059555493 4294901760
-0.48411849 0.15591714 -0.033924513 4294901760
-0.48411849 0.15591714 -0.0082935346 4294901760
-0.48411849 0.15591714 0.017337458 4294901760
-0.48411849 0.15591714 0.042968452 4294901760
-0.48411849 0.15591714 0.068599448 4294901760
-0.48411849 0.15591714 0.094230436 4294901760
-0.48411849 0.15591714 0.1198614 4294901760
-0.48411849 0.15591714 0.14549239 4294901760
-0.48411849 0.15591714 0.17112339 4294901760
-0.48411849 0.15591714 0.19675438 4294901760
-0.48411849 0.15591714 0.22238538 4294901760
-0.48411849 0.15591714 0.24801637 4294901760
-0.48411849 0.15591714 0.27364734 4294901760
-0.48411849 0.15591714 0.29927835 4294901760
-0.48411849 0.15591714 0.35054028 4294901760
-0.48411849 0.1815481 -0.26460341 4294901760
-0.48411849 0.1815481 -0.23897241 4294901760
-0.48411849 0.1815481 -0.16207944 4294901760
-0.48411849 0.1815481 0.042968452 4294901760
-0.48411849 0.1815481 0.1198614 4294901760
-0.48411849 0.1815481 0.32490933 4294901760
-0.48411849 0.2071791 -0.26460341 4294901760
-0.48411849 0.2071791 -0.23897241 4294901760
-0.48411849 0.2071791 -0.16207944 4294901760
-0.48411849 0.2071791 -0.13644846 4294901760
-0.48411849 0.2071791 -0.11081748 4294901760
-0.48411849 0.2071791 -0.085186489 4294901760
-0.48411849 0.2071791 -0.059555493 4294901760
-0.48411849 0.2071791 -0.033924513 4294901760
-0.48411849 0.2071791 -0.0082935346 4294901760
-0.48411849 0.2071791 0.017337458 4294901760
-0.48411849 0.2071791 0.042968452 4294901760
-0.48411849 0.2071791 0.094230436 4294901760
-0.48411849 0.23281009 -0.26460341 4294901760
-0.48411849 0.23281009 -0.23897241 4294901760
-0.48411849 0.23281009 -0.16207944 4294901760
-0.48411849 0.23281009 0.042968452 4294901760
-0.48411849 0.23281009 0.094230436 4294901760
-0.48411849 0.25844109 -0.26460341 4294901760
-0.48411849 0.25844109 -0.23897241 4294901760
-0.48411849 0.25844109 -0.16207944 4294901760
-0.48411849 0.25844109 0.042968452 4294901760
-0.48411849 0.25844109 0.068599448 4294901760
-0.48411849 0.28407207 -0.26460341 4294901760
-0.48411849 0.28407207 -0.23897241 4294901760
-0.48411849 0.28407207 0.042968452 4294901760
-0.48411849 0.28407207 0.068599448 4294901760
-0.48411849 0.30970308 -0.26460341 4294901760
-0.48411849 0.30970308 -0.23897241 4294901760
-0.48411849 0.30970308 0.042968452 4294901760
-0.48411849 0.33533403 -0.26460341 4294901760
-0.48411849 0.33533403 -0.23897241 4294901760
-0.48411849 0.36096501 -0.26460341 4294901760
-0.48411849 0.36096501 -0.23897241 4294901760
-0.48411849 0.38659602 -0.26460341 4294901760
-0.48411849 0.38659602 -0.23897241 4294901760
-0.48411849 0.412227 -0.26460341 4294901760
-0.48411849 0.412227 -0.23897241 4294901760
-0.48411849 0.43785802 -0.26460341 4294901760
-0.48411849 0.43785802 -0.23897241 4294901760
-0.48411849 0.463489 -0.26460341 4294901760
-0.48411849 0.463489 -0.23897241 4294901760
-0.48411849 0.48911998 -0.26460341 4294901760
-0.48411849 0.48911998 -0.23897241 4294901760
-0.48411849 0.51475102 -0.26460341 4294901760
-0.48411849 0.51475102 -0.23897241 4294901760
-0.48411849 0.54038197 -0.26460341 4294901760
-0.48411849 0.54038197 -0.23897241 4294901760
-0.48411849 0.56601292 -0.26460341 4294901760
-0.48411849 0.56601292 -0.23897241 4294901760
-0.48411849 0.59164393 -0.26460341 4294901760
-0.48411849 0.59164393 -0.23897241 4294901760
-0.48411849 0.61727488 -0.26460341 4294901760
-0.48411849 0.61727488 -0.23897241 4294901760
-0.48411849 0.64290595 -0.26460341 4294901760
-0.48411849 0.64290595 -0.23897241 4294901760
-0.48411849 0.6685369 -0.26460341 4294901760
-0.48411849 0.6685369 -0.23897241 4294901760
-0.48411849 0.69416785 -0.26460341 4294901760
-0.48411849 0.69416785 -0.23897241 4294901760
-0.45848766 -0.56175053 -0.18771043 4294901760
-0.45848766 -0.56175053 -0.16207944 4294901760
-0.45848766 -0.56175053 0.042968452 4294901760
-0.45848766 -0.56175053 0.19675438 4294901760
-0.45848766 -0.56175053 0.40180227 4294901760
-0.45848766 -0.53611946 -0.18771043 4294901760
-0.45848766 -0.53611946 -0.16207944 4294901760
-0.45848766 -0.53611946 0.042968452 4294901760
-0.45848766 -0.53611946 0.42743328 4294901760
-0.45848766 -0.51048851 -0.18771043 4294901760
-0.45848766 -0.51048851 -0.16207944 4294901760
-0.45848766 -0.51048851 0.45306426 4294901760
-0.45848766 -0.48485756 -0.18771043 4294901760
-0.45848766 -0.48485756 -0.16207944 4294901760
-0.45848766 -0.48485756 0.47869521 4294901760
-0.45848766 -0.45922658 -0.18771043 4294901760
-0.45848766 -0.45922658 -0.16207944 4294901760
-0.45848766 -0.45922658 0.50432622 4294901760
-0.45848766 -0.43359563 -0.21334143 4294901760
-0.45848766 -0.43359563 -0.18771043 4294901760
-0.45848766 -0.43359563 -0.16207944 4294901760
-0.45848766 -0.43359563 0.52995723 4294901760
-0.45848766 -0.40796453 -0.21334143 4294901760
-0.45848766 -0.40796453 -0.18771043 4294901760
-0.45848766 -0.40796453 0.55558819 4294901760
-0.45848766 -0.38233358 -0.21334143 4294901760
-0.45848766 -0.38233358 -0.18771043 4294901760
-0.45848766 -0.38233358 0.58121914 4294901760
-0.45848766 -0.3567026 -0.21334143 4294901760
-0.45848766 -0.3567026 -0.18771043 4294901760
-0.45848766 -0.3567026 0.60685015 4294901760
-0.45848766 -0.33107165 -0.21334143 4294901760
-0.45848766 -0.33107165 -0.18771043 4294901760
-0.45848766 -0.33107165 0.63248122 4294901760
-0.45848766 -0.30544063 -0.21334143 4294901760
-0.45848766 -0.30544063 -0.18771043 4294901760
-0.45848766 -0.30544063 0.37617132 4294901760
-0.45848766 -0.30544063 0.63248122 4294901760
-0.45848766 -0.27980965 -0.21334143 4294901760
-0.45848766 -0.27980965 -0.18771043 4294901760
-0.45848766 -0.27980965 0.37617132 4294901760
-0.45848766 -0.27980965 0.40180227 4294901760
-0.45848766 -0.27980965 0.42743328 4294901760
-0.45848766 -0.27980965 0.60685015 4294901760
-0.45848766 -0.25417864 -0.21334143 4294901760
-0.45848766 -0.25417864 -0.18771043 4294901760
-0.45848766 -0.25417864 0.37617132 4294901760
-0.45848766 -0.25417864 0.40180227 4294901760
-0.45848766 -0.25417864 0.42743328 4294901760
-0.45848766 -0.25417864 0.55558819 4294901760
-0.45848766 -0.25417864 0.58121914 4294901760
-0.45848766 -0.22854768 -0.21334143 4294901760
-0.45848766 -0.22854768 -0.18771043 4294901760
-0.45848766 -0.22854768 0.37617132 4294901760
-0.45848766 -0.22854768 0.40180227 4294901760
-0.45848766 -0.22854768 0.42743328 4294901760
-0.45848766 -0.22854768 0.52995723 4294901760
-0.45848766 -0.20291671 -0.21334143 4294901760
-0.45848766 -0.20291671 -0.18771043 4294901760
-0.45848766 -0.20291671 0.37617132 4294901760
-0.45848766 -0.20291671 0.40180227 4294901760
-0.45848766 -0.20291671 0.42743328 4294901760
-0.45848766 -0.20291671 0.50432622 4294901760
-0.45848766 -0.17728569 -0.23897241 4294901760
-0.45848766 -0.17728569 -0.21334143 4294901760
-0.45848766 -0.17728569 0.37617132 4294901760
-0.45848766 -0.17728569 0.40180227 4294901760
-0.45848766 -0.17728569 0.42743328 4294901760
-0.45848766 -0.17728569 0.47869521 4294901760
-0.45848766 -0.15165472 -0.23897241 4294901760
-0.45848766 -0.15165472 -0.21334143 4294901760
-0.45848766 -0.15165472 0.37617132 4294901760
-0.45848766 -0.15165472 0.40180227 4294901760
-0.45848766 -0.15165472 0.42743328 4294901760
-0.45848766 -0.15165472 0.45306426 4294901760
-0.45848766 -0.12602369 -0.23897241 4294901760
-0.45848766 -0.12602369 -0.21334143 4294901760
-0.45848766 -0.12602369 0.37617132 4294901760
-0.45848766 -0.12602369 0.40180227 4294901760
-0.45848766 -0.12602369 0.42743328 4294901760
-0.45848766 -0.10039274 -0.23897241 4294901760
-0.45848766 -0.10039274 -0.21334143 4294901760
-0.45848766 -0.10039274 0.37617132 4294901760
-0.45848766 -0.10039274 0.40180227 4294901760
-0.45848766 -0.10039274 0.42743328 4294901760
-0.45848766 -0.074761771 -0.23897241 4294901760
-0.45848766 -0.074761771 -0.21334143 4294901760
-0.45848766 -0.074761771 0.042968452 4294901760
-0.45848766 -0.074761771 0.37617132 4294901760
-0.45848766 -0.074761771 0.40180227 4294901760
-0.45848766 -0.074761771 0.42743328 4294901760
-0.45848766 -0.049130749 -0.26460341 4294901760
-0.45848766 -0.049130749 -0.23897241 4294901760
-0.45848766 -0.049130749 -0.21334143 4294901760
-0.45848766 -0.049130749 -0.18771043 4294901760
-0.45848766 -0.049130749 -0.16207944 4294901760
-0.45848766 -0.049130749 -0.13644846 4294901760
-0.45848766 -0.049130749 -0.11081748 4294901760
-0.45848766 -0.049130749 -0.085186489 4294901760
-0.45848766 -0.049130749 -0.059555493 4294901760
-0.45848766 -0.049130749 -0.033924513 4294901760
-0.45848766 -0.049130749 -0.0082935346 4294901760
-0.45848766 -0.049130749 0.017337458 4294901760
-0.45848766 -0.049130749 0.042968452 4294901760
-0.45848766 -0.049130749 0.068599448 4294901760
-0.45848766 -0.049130749 0.094230436 4294901760
-0.45848766 -0.049130749 0.1198614 4294901760
-0.45848766 -0.049130749 0.14549239 4294901760
-0.45848766 -0.049130749 0.17112339 4294901760
-0.45848766 -0.049130749 0.19675438 4294901760
-0.45848766 -0.049130749 0.22238538 4294901760
-0.45848766 -0.049130749 0.24801637 4294901760
-0.45848766 -0.049130749 0.27364734 4294901760
-0.45848766 -0.049130749 0.29927835 4294901760
-0.45848766 -0.049130749 0.35054028 4294901760
-0.45848766 -0.049130749 0.37617132 4294901760
-0.45848766 -0.049130749 0.40180227 4294901760
-0.45848766 -0.049130749 0.42743328 4294901760
-0.45848766 -0.023499785 -0.23897241 4294901760
-0.45848766 -0.023499785 -0.21334143 4294901760
-0.45848766 -0.023499785 0.042968452 4294901760
-0.45848766 -0.023499785 0.32490933 4294901760
-0.45848766 -0.023499785 0.37617132 4294901760
-0.45848766 -0.023499785 0.40180227 4294901760
-0.45848766 -0.023499785 0.42743328 4294901760
-0.45848766 0.0021312388 -0.23897241 4294901760
-0.45848766 0.0021312388 -0.21334143 4294901760
-0.45848766 0.0021312388 0.042968452 4294901760
-0.45848766 0.0021312388 0.37617132 4294901760
-0.45848766 0.0021312388 0.40180227 4294901760
-0.45848766 0.0021312388 0.42743328 4294901760
-0.45848766 0.027762203 -0.23897241 4294901760
-0.45848766 0.027762203 -0.21334143 4294901760
-0.45848766 0.027762203 0.042968452 4294901760
-0.45848766 0.027762203 0.068599448 4294901760
-0.45848766 0.027762203 0.094230436 4294901760
-0.45848766 0.027762203 0.1198614 4294901760
-0.45848766 0.027762203 0.14549239 4294901760
-0.45848766 0.027762203 0.17112339 4294901760
-0.45848766 0.027762203 0.37617132 4294901760
-0.45848766 0.027762203 0.40180227 4294901760
-0.45848766 0.027762203 0.42743328 4294901760
-0.45848766 0.053393167 -0.23897241 4294901760
-0.45848766 0.053393167 -0.21334143 4294901760
-0.45848766 0.053393167 0.042968452 4294901760
-0.45848766 0.053393167 0.17112339 4294901760
-0.45848766 0.053393167 0.37617132 4294901760
-0.45848766 0.053393167 0.40180227 4294901760
-0.45848766 0.079024188 -0.26460341 4294901760
-0.45848766 0.079024188 -0.23897241 4294901760
-0.45848766 0.079024188 0.042968452 4294901760
-0.45848766 0.079024188 0.17112339 4294901760
-0.45848766 0.079024188 0.37617132 4294901760
-0.45848766 0.10465515 -0.26460341 4294901760
-0.45848766 0.10465515 -0.23897241 4294901760
-0.45848766 0.10465515 0.042968452 4294901760
-0.45848766 0.10465515 0.17112339 4294901760
-0.45848766 0.10465515 0.37617132 4294901760
-0.45848766 0.13028617 -0.26460341 4294901760
-0.45848766 0.13028617 -0.23897241 4294901760
-0.45848766 0.13028617 0.042968452 4294901760
-0.45848766 0.13028617 0.14549239 4294901760
-0.45848766 0.13028617 0.35054028 4294901760
-0.45848766 0.15591714 -0.26460341 4294901760
-0.45848766 0.15591714 -0.23897241 4294901760
-0.45848766 0.15591714 -0.21334143 4294901760
-0.45848766 0.15591714 -0.18771043 4294901760
-0.45848766 0.15591714 -0.16207944 4294901760
-0.45848766 0.15591714 -0.13644846 4294901760
-0.45848766 0.15591714 -0.11081748 4294901760
-0.45848766 0.15591714 -0.085186489 4294901760
-0.45848766 0.15591714 -0.059555493 4294901760
-0.45848766 0.15591714 -0.033924513 4294901760
-0.45848766 0.15591714 -0.0082935346 4294901760
-0.45848766 0.15591714 0.017337458 4294901760
-0.45848766 0.15591714 0.042968452 4294901760
-0.45848766 0.15591714 0.068599448 4294901760
-0.45848766 0.15591714 0.094230436 4294901760
-0.45848766 0.15591714 0.1198614 4294901760
-0.45848766 0.15591714 0.14549239 4294901760
-0.45848766 0.15591714 0.17112339 4294901760
-0.45848766 0.15591714 0.19675438 4294901760
-0.45848766 0.15591714 0.22238538 4294901760
-0.45848766 0.15591714 0.24801637 4294901760
-0.45848766 0.15591714 0.27364734 4294901760
-0.45848766 0.15591714 0.29927835 4294901760
-0.45848766 0.15591714 0.35054028 4294901760
-0.45848766 0.1815481 -0.26460341 4294901760
-0.45848766 0.1815481 -0.23897241 4294901760
-0.45848766 0.1815481 -0.16207944 4294901760
-0.45848766 0.1815481 -0.13644846 4294901760
-0.45848766 0.1815481 -0.11081748 4294901760
-0.45848766 0.1815481 -0.085186489 4294901760
-0.45848766 0.1815481 -0.059555493 4294901760
-0.45848766 0.1815481 -0.033924513 4294901760
-0.45848766 0.1815481 -0.0082935346 4294901760
-0.45848766 0.1815481 0.017337458 4294901760
-0.45848766 0.1815481 0.042968452 4294901760
-0.45848766 0.1815481 0.1198614 4294901760
-0.45848766 0.1815481 0.32490933 4294901760
-0.45848766 0.2071791 -0.26460341 4294901760
-0.45848766 0.2071791 -0.23897241 4294901760
-0.45848766 0.2071791 -0.16207944 4294901760
-0.45848766 0.2071791 0.042968452 4294901760
-0.45848766 0.2071791 0.094230436 4294901760
-0.45848766 0.23281009 -0.26460341 4294901760
-0.45848766 0.23281009 -0.23897241 4294901760
-0.45848766 0.23281009 0.042968452 4294901760
-0.45848766 0.23281009 0.094230436 4294901760
-0.45848766 0.25844109 -0.26460341 4294901760
-0.45848766 0.25844109 -0.23897241 4294901760
-0.45848766 0.25844109 0.042968452 4294901760
-0.45848766 0.25844109 0.068599448 4294901760
-0.45848766 0.28407207 -0.26460341 4294901760
-0.45848766 0.28407207 -0.23897241 4294901760
-0.45848766 0.28407207 0.042968452 4294901760
-0.45848766 0.28407207 0.068599448 4294901760
-0.45848766 0.30970308 -0.26460341 4294901760
-0.45848766 0.30970308 -0.23897241 4294901760
-0.45848766 0.30970308 0.042968452 4294901760
-0.45848766 0.33533403 -0.26460341 4294901760
-0.45848766 0.33533403 -0.23897241 4294901760
-0.45848766 0.36096501 -0.26460341 4294901760
-0.45848766 0.36096501 -0.23897241 4294901760
-0.45848766 0.38659602 -0.26460341 4294901760
-0.45848766 0.38659602 -0.23897241 4294901760
-0.45848766 0.412227 -0.26460341 4294901760
-0.45848766 0.412227 -0.23897241 4294901760
-0.45848766 0.43785802 -0.26460341 4294901760
-0.45848766 0.43785802 -0.23897241 4294901760
-0.45848766 0.463489 -0.26460341 4294901760
-0.45848766 0.463489 -0.23897241 4294901760
-0.45848766 0.48911998 -0.26460341 4294901760
-0.45848766 0.48911998 -0.23897241 4294901760
-0.45848766 0.51475102 -0.26460341 4294901760
-0.45848766 0.51475102 -0.23897241 4294901760
-0.45848766 0.54038197 -0.26460341 4294901760
-0.45848766 0.54038197 -0.23897241 4294901760
-0.45848766 0.56601292 -0.26460341 4294901760
-0.45848766 0.56601292 -0.23897241 4294901760
-0.45848766 0.59164393 -0.26460341 4294901760
-0.45848766 0.59164393 -0.23897241 4294901760
-0.45848766 0.61727488 -0.26460341 4294901760
-0.45848766 0.61727488 -0.23897241 4294901760
-0.45848766 0.64290595 -0.26460341 4294901760
-0.45848766 0.64290595 -0.23897241 4294901760
-0.45848766 0.6685369 -0.26460341 4294901760
-0.45848766 0.6685369 -0.23897241 4294901760
-0.45848766 0.69416785 -0.26460341 4294901760
-0.45848766 0.69416785 -0.23897241 4294901760
-0.43285656 -0.56175053 -0.18771043 4294901760
-0.43285656 -0.56175053 -0.16207944 4294901760
-0.43285656 -0.56175053 0.042968452 4294901760
-0.43285656 -0.56175053 0.19675438 4294901760
-0.43285656 -0.56175053 0.40180227 4294901760
-0.43285656 -0.53611946 -0.18771043 4294901760
-0.43285656 -0.53611946 -0.16207944 4294901760
-0.43285656 -0.53611946 0.042968452 4294901760
-0.43285656 -0.53611946 0.42743328 4294901760
-0.43285656 -0.51048851 -0.18771043 4294901760
-0.43285656 -0.51048851 -0.16207944 4294901760
-0.43285656 -0.51048851 0.45306426 4294901760
-0.43285656 -0.48485756 -0.18771043 4294901760
-0.43285656 -0.48485756 -0.16207944 4294901760
-0.43285656 -0.48485756 0.47869521 4294901760
-0.43285656 -0.45922658 -0.21334143 4294901760
-0.43285656 -0.45922658 -0.18771043 4294901760
-0.43285656 -0.45922658 0.50432622 4294901760
-0.43285656 -0.43359563 -0.21334143 4294901760
-0.43285656 -0.43359563 -0.18771043 4294901760
-0.43285656 -0.43359563 0.52995723 4294901760
-0.43285656 -0.40796453 -0.21334143 4294901760
-0.43285656 -0.40796453 -0.18771043 4294901760
-0.43285656 -0.40796453 0.55558819 4294901760
-0.43285656 -0.38233358 -0.21334143 4294901760
-0.43285656 -0.38233358 -0.18771043 4294901760
-0.43285656 -0.38233358 0.58121914 4294901760
-0.43285656 -0.3567026 -0.21334143 4294901760
-0.43285656 -0.3567026 -0.18771043 4294901760
-0.43285656 -0.3567026 0.60685015 4294901760
-0.43285656 -0.33107165 -0.21334143 4294901760
-0.43285656 -0.33107165 -0.18771043 4294901760
-0.43285656 -0.33107165 0.63248122 4294901760
-0.43285656 -0.30544063 -0.21334143 4294901760
-0.43285656 -0.30544063 -0.18771043 4294901760
-0.43285656 -0.30544063 0.35054028 4294901760
-0.43285656 -0.30544063 0.63248122 4294901760
-0.43285656 -0.27980965 -0.21334143 4294901760
-0.43285656 -0.27980965 -0.18771043 4294901760
-0.43285656 -0.27980965 0.35054028 4294901760
-0.43285656 -0.27980965 0.37617132 4294901760
-0.43285656 -0.27980965 0.42743328 4294901760
-0.43285656 -0.27980965 0.60685015 4294901760
-0.43285656 -0.25417864 -0.21334143 4294901760
-0.43285656 -0.25417864 -0.18771043 4294901760
-0.43285656 -0.25417864 0.35054028 4294901760
-0.43285656 -0.25417864 0.37617132 4294901760
-0.43285656 -0.25417864 0.42743328 4294901760
-0.43285656 -0.25417864 0.55558819 4294901760
-0.43285656 -0.25417864 0.58121914 4294901760
-0.43285656 -0.22854768 -0.21334143 4294901760
-0.43285656 -0.22854768 -0.18771043 4294901760
-0.43285656 -0.22854768 0.32490933 4294901760
-0.43285656 -0.22854768 0.35054028 4294901760
-0.43285656 -0.22854768 0.37617132 4294901760
-0.43285656 -0.22854768 0.42743328 4294901760
-0.43285656 -0.22854768 0.52995723 4294901760
-0.43285656 -0.20291671 -0.23897241 4294901760
-0.43285656 -0.20291671 -0.21334143 4294901760
-0.43285656 -0.20291671 -0.18771043 4294901760
-0.43285656 -0.20291671 0.29927835 4294901760
-0.43285656 -0.20291671 0.32490933 4294901760
-0.43285656 -0.20291671 0.35054028 4294901760
-0.43285656 -0.20291671 0.37617132 4294901760
-0.43285656 -0.20291671 0.42743328 4294901760
-0.43285656 -0.20291671 0.50432622 4294901760
-0.43285656 -0.17728569 -0.23897241 4294901760
-0.43285656 -0.17728569 -0.21334143 4294901760
-0.43285656 -0.17728569 0.24801637 4294901760
-0.43285656 -0.17728569 0.27364734 4294901760
-0.43285656 -0.17728569 0.29927835 4294901760
-0.43285656 -0.17728569 0.32490933 4294901760
-0.43285656 -0.17728569 0.35054028 4294901760
-0.43285656 -0.17728569 0.37617132 4294901760
-0.43285656 -0.17728569 0.42743328 4294901760
-0.43285656 -0.17728569 0.47869521 4294901760
-0.43285656 -0.15165472 -0.23897241 4294901760
-0.43285656 -0.15165472 -0.21334143 4294901760
-0.43285656 -0.15165472 0.068599448 4294901760
-0.43285656 -0.15165472 0.094230436 4294901760
-0.43285656 -0.15165472 0.1198614 4294901760
-0.43285656 -0.15165472 0.14549239 4294901760
-0.43285656 -0.15165472 0.17112339 4294901760
-0.43285656 -0.15165472 0.19675438 4294901760
-0.43285656 -0.15165472 0.22238538 4294901760
-0.43285656 -0.15165472 0.24801637 4294901760
-0.43285656 -0.15165472 0.27364734 4294901760
-0.43285656 -0.15165472 0.29927835 4294901760
-0.43285656 -0.15165472 0.32490933 4294901760
-0.43285656 -0.15165472 0.35054028 4294901760
-0.43285656 -0.15165472 0.37617132 4294901760
-0.43285656 -0.15165472 0.42743328 4294901760
-0.43285656 -0.15165472 0.45306426 4294901760
-0.43285656 -0.12602369 -0.23897241 4294901760
-0.43285656 -0.12602369 -0.21334143 4294901760
-0.43285656 -0.12602369 -0.11081748 4294901760
-0.43285656 -0.12602369 -0.085186489 4294901760
-0.43285656 -0.12602369 -0.059555493 4294901760
-0.43285656 -0.12602369 -0.033924513 4294901760
-0.43285656 -0.12602369 -0.0082935346 4294901760
-0.43285656 -0.12602369 0.017337458 4294901760
-0.43285656 -0.12602369 0.042968452 4294901760
-0.43285656 -0.12602369 0.068599448 4294901760
-0.43285656 -0.12602369 0.094230436 4294901760
-0.43285656 -0.12602369 0.1198614 4294901760
-0.43285656 -0.12602369 0.14549239 4294901760
-0.43285656 -0.12602369 0.17112339 4294901760
-0.43285656 -0.12602369 0.19675438 4294901760
-0.43285656 -0.12602369 0.22238538 4294901760
-0.43285656 -0.12602369 0.24801637 4294901760
-0.43285656 -0.12602369 0.27364734 4294901760
-0.43285656 -0.12602369 0.29927835 4294901760
-0.43285656 -0.12602369 0.32490933 4294901760
-0.43285656 -0.12602369 0.35054028 4294901760
-0.43285656 -0.12602369 0.37617132 4294901760
-0.43285656 -0.12602369 0.42743328 4294901760
-0.43285656 -0.10039274 -0.26460341 4294901760
-0.43285656 -0.10039274 -0.23897241 4294901760
-0.43285656 -0.10039274 -0.21334143 4294901760
-0.43285656 -0.10039274 -0.18771043 4294901760
-0.43285656 -0.10039274 -0.16207944 4294901760
-0.43285656 -0.10039274 -0.13644846 4294901760
-0.43285656 -0.10039274 -0.11081748 4294901760
-0.43285656 -0.10039274 -0.085186489 4294901760
-0.43285656 -0.10039274 -0.059555493 4294901760
-0.43285656 -0.10039274 -0.033924513 4294901760
-0.43285656 -0.10039274 -0.0082935346 4294901760
-0.43285656 -0.10039274 0.017337458 4294901760
-0.43285656 -0.10039274 0.042968452 4294901760
-0.43285656 -0.10039274 0.068599448 4294901760
-0.43285656 -0.10039274 0.094230436 4294901760
-0.43285656 -0.10039274 0.1198614 4294901760
-0.43285656 -0.10039274 0.14549239 4294901760
-0.43285656 -0.10039274 0.17112339 4294901760
-0.43285656 -0.10039274 0.19675438 4294901760
-0.43285656 -0.10039274 0.22238538 4294901760
-0.43285656 -0.10039274 0.24801637 4294901760
-0.43285656 -0.10039274 0.27364734 4294901760
-0.43285656 -0.10039274 0.29927835 4294901760
-0.43285656 -0.10039274 0.32490933 4294901760
-0.43285656 -0.10039274 0.35054028 4294901760
-0.43285656 -0.10039274 0.37617132 4294901760
-0.43285656 -0.10039274 0.40180227 4294901760
-0.43285656 -0.10039274 0.42743328 4294901760
-0.43285656 -0.074761771 -0.26460341 4294901760
-0.43285656 -0.074761771 -0.23897241 4294901760
-0.43285656 -0.074761771 -0.21334143 4294901760
-0.43285656 -0.074761771 -0.18771043 4294901760
-0.43285656 -0.074761771 -0.16207944 4294901760
-0.43285656 -0.074761771 -0.13644846 4294901760
-0.43285656 -0.074761771 -0.11081748 4294901760
-0.43285656 -0.074761771 -0.085186489 4294901760
-0.43285656 -0.074761771 -0.059555493 4294901760
-0.43285656 -0.074761771 -0.033924513 4294901760
-0.43285656 -0.074761771 -0.0082935346 4294901760
-0.43285656 -0.074761771 0.017337458 4294901760
-0.43285656 -0.074761771 0.042968452 4294901760
-0.43285656 -0.074761771 0.068599448 4294901760
-0.43285656 -0.074761771 0.094230436 4294901760
-0.43285656 -0.074761771 0.1198614 4294901760
-0.43285656 -0.074761771 0.14549239 4294901760
-0.43285656 -0.074761771 0.17112339 4294901760
-0.43285656 -0.074761771 0.19675438 4294901760
-0.43285656 -0.074761771 0.22238538 4294901760
-0.43285656 -0.074761771 0.24801637 4294901760
-0.43285656 -0.074761771 0.27364734 4294901760
-0.43285656 -0.074761771 0.29927835 4294901760
-0.43285656 -0.074761771 0.32490933 4294901760
-0.43285656 -0.074761771 0.35054028 4294901760
-0.43285656 -0.074761771 0.37617132 4294901760
-0.43285656 -0.074761771 0.42743328 4294901760
-0.43285656 -0.049130749 -0.26460341 4294901760
-0.43285656 -0.049130749 -0.23897241 4294901760
-0.43285656 -0.049130749 -0.21334143 4294901760
-0.43285656 -0.049130749 -0.18771043 4294901760
-0.43285656 -0.049130749 -0.16207944 4294901760
-0.43285656 -0.049130749 -0.13644846 4294901760
-0.43285656 -0.049130749 -0.11081748 4294901760
-0.43285656 -0.049130749 -0.085186489 4294901760
-0.43285656 -0.049130749 -0.059555493 4294901760
-0.43285656 -0.049130749 -0.033924513 4294901760
-0.43285656 -0.049130749 -0.0082935346 4294901760
-0.43285656 -0.049130749 0.017337458 4294901760
-0.43285656 -0.049130749 0.042968452 4294901760
-0.43285656 -0.049130749 0.068599448 4294901760
-0.43285656 -0.049130749 0.094230436 4294901760
-0.43285656 -0.049130749 0.1198614 4294901760
-0.43285656 -0.049130749 0.14549239 4294901760
-0.43285656 -0.049130749 0.17112339 4294901760
-0.43285656 -0.049130749 0.19675438 4294901760
-0.43285656 -0.049130749 0.22238538 4294901760
-0.43285656 -0.049130749 0.24801637 4294901760
-0.43285656 -0.049130749 0.27364734 4294901760
-0.43285656 -0.049130749 0.29927835 4294901760
-0.43285656 -0.049130749 0.32490933 4294901760
-0.43285656 -0.049130749 0.35054028 4294901760
-0.43285656 -0.049130749 0.37617132 4294901760
-0.43285656 -0.049130749 0.42743328 4294901760
-0.43285656 -0.023499785 -0.26460341 4294901760
-0.43285656 -0.023499785 -0.23897241 4294901760
-0.43285656 -0.023499785 -0.21334143 4294901760
-0.43285656 -0.023499785 -0.18771043 4294901760
-0.43285656 -0.023499785 -0.16207944 4294901760
-0.43285656 -0.023499785 -0.13644846 4294901760
-0.43285656 -0.023499785 -0.11081748 4294901760
-0.43285656 -0.023499785 -0.085186489 4294901760
-0.43285656 -0.023499785 -0.059555493 4294901760
-0.43285656 -0.023499785 -0.033924513 4294901760
-0.43285656 -0.023499785 -0.0082935346 4294901760
-0.43285656 -0.023499785 0.017337458 4294901760
-0.43285656 -0.023499785 0.042968452 4294901760
-0.43285656 -0.023499785 0.068599448 4294901760
-0.43285656 -0.023499785 0.094230436 4294901760
-0.43285656 -0.023499785 0.1198614 4294901760
-0.43285656 -0.023499785 0.14549239 4294901760
-0.43285656 -0.023499785 0.17112339 4294901760
-0.43285656 -0.023499785 0.19675438 4294901760
-0.43285656 -0.023499785 0.22238538 4294901760
-0.43285656 -0.023499785 0.24801637 4294901760
-0.43285656 -0.023499785 0.27364734 4294901760
-0.43285656 -0.023499785 0.29927835 4294901760
-0.43285656 -0.023499785 0.32490933 4294901760
-0.43285656 -0.023499785 0.35054028 4294901760
-0.43285656 -0.023499785 0.37617132 4294901760
-0.43285656 -0.023499785 0.42743328 4294901760
-0.43285656 0.0021312388 -0.26460341 4294901760
-0.43285656 0.0021312388 -0.23897241 4294901760
-0.43285656 0.0021312388 -0.21334143 4294901760
-0.43285656 0.0021312388 -0.18771043 4294901760
-0.43285656 0.0021312388 -0.16207944 4294901760
-0.43285656 0.0021312388 -0.13644846 4294901760
-0.43285656 0.0021312388 -0.11081748 4294901760
-0.43285656 0.0021312388 -0.085186489 4294901760
-0.43285656 0.0021312388 -0.059555493 4294901760
-0.43285656 0.0021312388 -0.033924513 4294901760
-0.43285656 0.0021312388 -0.0082935346 4294901760
-0.43285656 0.0021312388 0.017337458 4294901760
-0.43285656 0.0021312388 0.042968452 4294901760
-0.43285656 0.0021312388 0.068599448 4294901760
-0.43285656 0.0021312388 0.094230436 4294901760
-0.43285656 0.0021312388 0.1198614 4294901760
-0.43285656 0.0021312388 0.14549239 4294901760
-0.43285656 0.0021312388 0.17112339 4294901760
-0.43285656 0.0021312388 0.19675438 4294901760
-0.43285656 0.0021312388 0.22238538 4294901760
-0.43285656 0.0021312388 0.24801637 4294901760
-0.43285656 0.0021312388 0.27364734 4294901760
-0.43285656 0.0021312388 0.29927835 4294901760
-0.43285656 0.0021312388 0.32490933 4294901760
-0.43285656 0.0021312388 0.35054028 4294901760
-0.43285656 0.0021312388 0.37617132 4294901760
-0.43285656 0.0021312388 0.42743328 4294901760
-0.43285656 0.027762203 -0.26460341 4294901760
-0.43285656 0.027762203 -0.23897241 4294901760
-0.43285656 0.027762203 -0.21334143 4294901760
-0.43285656 0.027762203 -0.18771043 4294901760
-0.43285656 0.027762203 -0.16207944 4294901760
-0.43285656 0.027762203 -0.13644846 4294901760
-0.43285656 0.027762203 -0.11081748 4294901760
-0.43285656 0.027762203 -0.085186489 4294901760
-0.43285656 0.027762203 -0.059555493 4294901760
-0.43285656 0.027762203 -0.033924513 4294901760
-0.43285656 0.027762203 -0.0082935346 4294901760
-0.43285656 0.027762203 0.017337458 4294901760
-0.43285656 0.027762203 0.042968452 4294901760
-0.43285656 0.027762203 0.068599448 4294901760
-0.43285656 0.027762203 0.094230436 4294901760
-0.43285656 0.027762203 0.1198614 4294901760
-0.43285656 0.027762203 0.14549239 4294901760
-0.43285656 0.027762203 0.17112339 4294901760
-0.43285656 0.027762203 0.19675438 4294901760
-0.43285656 0.027762203 0.22238538 4294901760
-0.43285656 0.027762203 0.24801637 4294901760
-0.43285656 0.027762203 0.27364734 4294901760
-0.43285656 0.027762203 0.29927835 4294901760
-0.43285656 0.027762203 0.35054028 4294901760
-0.43285656 0.027762203 0.37617132 4294901760
-0.43285656 0.027762203 0.42743328 4294901760
-0.43285656 0.053393167 -0.26460341 4294901760
-0.43285656 0.053393167 -0.23897241 4294901760
-0.43285656 0.053393167 -0.21334143 4294901760
-0.43285656 0.053393167 -0.18771043 4294901760
-0.43285656 0.053393167 -0.16207944 4294901760
-0.43285656 0.053393167 -0.13644846 4294901760
-0.43285656 0.053393167 -0.11081748 4294901760
-0.43285656 0.053393167 -0.085186489 4294901760
-0.43285656 0.053393167 -0.059555493 4294901760
-0.43285656 0.053393167 -0.033924513 4294901760
-0.43285656 0.053393167 -0.0082935346 4294901760
-0.43285656 0.053393167 0.017337458 4294901760
-0.43285656 0.053393167 0.042968452 4294901760
-0.43285656 0.053393167 0.068599448 4294901760
-0.43285656 0.053393167 0.094230436 4294901760
-0.43285656 0.053393167 0.1198614 4294901760
-0.43285656 0.053393167 0.14549239 4294901760
-0.43285656 0.053393167 0.17112339 4294901760
-0.43285656 0.053393167 0.19675438 4294901760
-0.43285656 0.053393167 0.22238538 4294901760
-0.43285656 0.053393167 0.24801637 4294901760
-0.43285656 0.053393167 0.27364734 4294901760
-0.43285656 0.053393167 0.29927835 4294901760
-0.43285656 0.053393167 0.35054028 4294901760
-0.43285656 0.053393167 0.40180227 4294901760
-0.43285656 0.079024188 -0.26460341 4294901760
-0.43285656 0.079024188 -0.23897241 4294901760
-0.43285656 0.079024188 -0.21334143 4294901760
-0.43285656 0.079024188 -0.18771043 4294901760
-0.43285656 0.079024188 -0.16207944 4294901760
-0.43285656 0.079024188 -0.13644846 4294901760
-0.43285656 0.079024188 -0.11081748 4294901760
-0.43285656 0.079024188 -0.085186489 4294901760
-0.43285656 0.079024188 -0.059555493 4294901760
-0.43285656 0.079024188 -0.033924513 4294901760
-0.43285656 0.079024188 -0.0082935346 4294901760
-0.43285656 0.079024188 0.017337458 4294901760
-0.43285656 0.079024188 0.042968452 4294901760
-0.43285656 0.079024188 0.068599448 4294901760
-0.43285656 0.079024188 0.094230436 4294901760
-0.43285656 0.079024188 0.1198614 4294901760
-0.43285656 0.079024188 0.14549239 4294901760
-0.43285656 0.079024188 0.17112339 4294901760
-0.43285656 0.079024188 0.19675438 4294901760
-0.43285656 0.079024188 0.22238538 4294901760
-0.43285656 0.079024188 0.24801637 4294901760
-0.43285656 0.079024188 0.27364734 4294901760
-0.43285656 0.079024188 0.29927835 4294901760
-0.43285656 0.079024188 0.35054028 4294901760
-0.43285656 0.10465515 -0.26460341 4294901760
-0.43285656 0.10465515 -0.23897241 4294901760
-0.43285656 0.10465515 -0.21334143 4294901760
-0.43285656 0.10465515 -0.18771043 4294901760
-0.43285656 0.10465515 -0.16207944 4294901760
-0.43285656 0.10465515 -0.13644846 4294901760
-0.43285656 0.10465515 -0.11081748 4294901760
-0.43285656 0.10465515 -0.085186489 4294901760
-0.43285656 0.10465515 -0.059555493 4294901760
-0.43285656 0.10465515 -0.033924513 4294901760
-0.43285656 0.10465515 -0.0082935346 4294901760
-0.43285656 0.10465515 0.017337458 4294901760
-0.43285656 0.10465515 0.042968452 4294901760
-0.43285656 0.10465515 0.068599448 4294901760
-0.43285656 0.10465515 0.094230436 4294901760
-0.43285656 0.10465515 0.1198614 4294901760
-0.43285656 0.10465515 0.14549239 4294901760
-0.43285656 0.10465515 0.17112339 4294901760
-0.43285656 0.10465515 0.19675438 4294901760
-0.43285656 0.10465515 0.22238538 4294901760
-0.43285656 0.10465515 0.24801637 4294901760
-0.43285656 0.10465515 0.27364734 4294901760
-0.43285656 0.10465515 0.29927835 4294901760
-0.43285656 0.10465515 0.35054028 4294901760
-0.43285656 0.13028617 -0.26460341 4294901760
-0.43285656 0.13028617 -0.23897241 4294901760
-0.43285656 0.13028617 -0.21334143 4294901760
-0.43285656 0.13028617 -0.18771043 4294901760
-0.43285656 0.13028617 -0.16207944 4294901760
-0.43285656 0.13028617 -0.13644846 4294901760
-0.43285656 0.13028617 -0.11081748 4294901760
-0.43285656 0.13028617 -0.085186489 4294901760
-0.43285656 0.13028617 -0.059555493 4294901760
-0.43285656 0.13028617 -0.033924513 4294901760
-0.43285656 0.13028617 -0.0082935346 4294901760
-0.43285656 0.13028617 0.017337458 4294901760
-0.43285656 0.13028617 0.042968452 4294901760
-0.43285656 0.13028617 0.068599448 4294901760
-0.43285656 0.13028617 0.094230436 4294901760
-0.43285656 0.13028617 0.1198614 4294901760
-0.43285656 0.13028617 0.14549239 4294901760
-0.43285656 0.13028617 0.17112339 4294901760
-0.43285656 0.13028617 0.19675438 4294901760
-0.43285656 0.13028617 0.22238538 4294901760
-0.43285656 0.13028617 0.24801637 4294901760
-0.43285656 0.13028617 0.27364734 4294901760
-0.43285656 0.13028617 0.29927835 4294901760
-0.43285656 0.13028617 0.35054028 4294901760
-0.43285656 0.15591714 -0.26460341 4294901760
-0.43285656 0.15591714 -0.23897241 4294901760
-0.43285656 0.15591714 0.042968452 4294901760
-0.43285656 0.15591714 0.14549239 4294901760
-0.43285656 0.15591714 0.29927835 4294901760
-0.43285656 0.15591714 0.35054028 4294901760
-0.43285656 0.1815481 -0.26460341 4294901760
-0.43285656 0.1815481 -0.23897241 4294901760
-0.43285656 0.1815481 0.042968452 4294901760
-0.43285656 0.1815481 0.1198614 4294901760
-0.43285656 0.1815481 0.32490933 4294901760
-0.43285656 0.2071791 -0.26460341 4294901760
-0.43285656 0.2071791 -0.23897241 4294901760
-0.43285656 0.2071791 0.042968452 4294901760
-0.43285656 0.2071791 0.094230436 4294901760
-0.43285656 0.23281009 -0.26460341 4294901760
-0.43285656 0.23281009 -0.23897241 4294901760
-0.43285656 0.23281009 0.042968452 4294901760
-0.43285656 0.23281009 0.094230436 4294901760
-0.43285656 0.25844109 -0.26460341 4294901760
-0.43285656 0.25844109 -0.23897241 4294901760
-0.43285656 0.25844109 0.042968452 4294901760
-0.43285656 0.25844109 0.068599448 4294901760
-0.43285656 0.28407207 -0.26460341 4294901760
-0.43285656 0.28407207 -0.23897241 4294901760
-0.43285656 0.28407207 0.042968452 4294901760
-0.43285656 0.28407207 0.068599448 4294901760
-0.43285656 0.30970308 -0.26460341 4294901760
-0.43285656 0.30970308 -0.23897241 4294901760
-0.43285656 0.30970308 0.042968452 4294901760
-0.43285656 0.33533403 -0.26460341 4294901760
-0.43285656 0.33533403 -0.23897241 4294901760
-0.43285656 0.36096501 -0.26460341 4294901760
-0.43285656 0.36096501 -0.23897241 4294901760
-0.43285656 0.38659602 -0.26460341 4294901760
-0.43285656 0.38659602 -0.23897241 4294901760
-0.43285656 0.412227 -0.26460341 4294901760
-0.43285656 0.412227 -0.23897241 4294901760
-0.43285656 0.43785802 -0.26460341 4294901760
-0.43285656 0.43785802 -0.23897241 4294901760
-0.43285656 0.463489 -0.26460341 4294901760
-0.43285656 0.463489 -0.23897241 4294901760
-0.43285656 0.48911998 -0.26460341 4294901760
-0.43285656 0.48911998 -0.23897241 4294901760
-0.43285656 0.51475102 -0.26460341 4294901760
-0.43285656 0.51475102 -0.23897241 4294901760
-0.43285656 0.54038197 -0.26460341 4294901760
-0.43285656 0.54038197 -0.23897241 4294901760
-0.43285656 0.56601292 -0.26460341 4294901760
-0.43285656 0.56601292 -0.23897241 4294901760
-0.43285656 0.59164393 -0.26460341 4294901760
-0.43285656 0.59164393 -0.23897241 4294901760
-0.43285656 0.61727488 -0.26460341 4294901760
-0.43285656 0.61727488 -0.23897241 4294901760
-0.43285656 0.64290595 -0.26460341 4294901760
-0.43285656 0.64290595 -0.23897241 4294901760
-0.43285656 0.6685369 -0.26460341 4294901760
-0.43285656 0.6685369 -0.23897241 4294901760
-0.43285656 0.69416785 -0.26460341 4294901760
-0.43285656 0.69416785 -0.23897241 4294901760
-0.40722549 -0.56175053 -0.18771043 4294901760
-0.40722549 -0.56175053 -0.16207944 4294901760
-0.40722549 -0.56175053 0.042968452 4294901760
-0.40722549 -0.56175053 0.19675438 4294901760
-0.40722549 -0.56175053 0.40180227 4294901760
-0.40722549 -0.53611946 -0.18771043 4294901760
-0.40722549 -0.53611946 -0.16207944 4294901760
-0.40722549 -0.53611946 0.042968452 4294901760
-0.40722549 -0.53611946 0.42743328 4294901760
-0.40722549 -0.51048851 -0.18771043 4294901760
-0.40722549 -0.51048851 -0.16207944 4294901760
-0.40722549 -0.51048851 0.45306426 4294901760
-0.40722549 -0.48485756 -0.18771043 4294901760
-0.40722549 -0.48485756 -0.16207944 4294901760
-0.40722549 -0.48485756 0.47869521 4294901760
-0.40722549 -0.45922658 -0.21334143 4294901760
-0.40722549 -0.45922658 -0.18771043 4294901760
-0.40722549 -0.45922658 0.50432622 4294901760
-0.40722549 -0.43359563 -0.21334143 4294901760
-0.40722549 -0.43359563 -0.18771043 4294901760
-0.40722549 -0.43359563 0.52995723 4294901760
-0.40722549 -0.40796453 -0.21334143 4294901760
-0.40722549 -0.40796453 -0.18771043 4294901760
-0.40722549 -0.40796453 0.55558819 4294901760
-0.40722549 -0.38233358 -0.21334143 4294901760
-0.40722549 -0.38233358 -0.18771043 4294901760
-0.40722549 -0.38233358 0.58121914 4294901760
-0.40722549 -0.3567026 -0.21334143 4294901760
-0.40722549 -0.3567026 -0.18771043 4294901760
-0.40722549 -0.3567026 0.60685015 4294901760
-0.40722549 -0.33107165 -0.21334143 4294901760
-0.40722549 -0.33107165 -0.18771043 4294901760
-0.40722549 -0.33107165 0.63248122 4294901760
-0.40722549 -0.30544063 -0.21334143 4294901760
-0.40722549 -0.30544063 -0.18771043 4294901760
-0.40722549 -0.30544063 0.29927835 4294901760
-0.40722549 -0.30544063 0.32490933 4294901760
-0.40722549 -0.30544063 0.63248122 4294901760
-0.40722549 -0.27980965 -0.21334143 4294901760
-0.40722549 -0.27980965 -0.18771043 4294901760
-0.40722549 -0.27980965 0.29927835 4294901760
-0.40722549 -0.27980965 0.32490933 4294901760
-0.40722549 -0.27980965 0.42743328 4294901760
-0.40722549 -0.27980965 0.60685015 4294901760
-0.40722549 -0.25417864 -0.21334143 4294901760
-0.40722549 -0.25417864 -0.18771043 4294901760
-0.40722549 -0.25417864 0.29927835 4294901760
-0.40722549 -0.25417864 0.32490933 4294901760
-0.40722549 -0.25417864 0.42743328 4294901760
-0.40722549 -0.25417864 0.55558819 4294901760
-0.40722549 -0.25417864 0.58121914 4294901760
-0.40722549 -0.22854768 -0.21334143 4294901760
-0.40722549 -0.22854768 -0.18771043 4294901760
-0.40722549 -0.22854768 0.29927835 4294901760
-0.40722549 -0.22854768 0.32490933 4294901760
-0.40722549 -0.22854768 0.42743328 4294901760
-0.40722549 -0.22854768 0.52995723 4294901760
-0.40722549 -0.20291671 -0.23897241 4294901760
-0.40722549 -0.20291671 -0.21334143 4294901760
-0.40722549 -0.20291671 0.29927835 4294901760
-0.40722549 -0.20291671 0.32490933 4294901760
-0.40722549 -0.20291671 0.42743328 4294901760
-0.40722549 -0.20291671 0.50432622 4294901760
-0.40722549 -0.17728569 -0.23897241 4294901760
-0.40722549 -0.17728569 -0.21334143 4294901760
-0.40722549 -0.17728569 0.29927835 4294901760
-0.40722549 -0.17728569 0.32490933 4294901760
-0.40722549 -0.17728569 0.42743328 4294901760
-0.40722549 -0.17728569 0.47869521 4294901760
-0.40722549 -0.15165472 -0.23897241 4294901760
-0.40722549 -0.15165472 -0.21334143 4294901760
-0.40722549 -0.15165472 0.29927835 4294901760
-0.40722549 -0.15165472 0.32490933 4294901760
-0.40722549 -0.15165472 0.42743328 4294901760
-0.40722549 -0.15165472 0.45306426 4294901760
-0.40722549 -0.12602369 -0.23897241 4294901760
-0.40722549 -0.12602369 -0.21334143 4294901760
-0.40722549 -0.12602369 0.29927835 4294901760
-0.40722549 -0.12602369 0.32490933 4294901760
-0.40722549 -0.12602369 0.42743328 4294901760
-0.40722549 -0.10039274 -0.23897241 4294901760
