# .PCD v0.7 - Point Cloud Data file format
VERSION 0.7
FIELDS x y z rgb
SIZE 4 4 4 4
TYPE F F F U
COUNT 1 1 1 1
WIDTH 608
HEIGHT 1
VIEWPOINT 0 0 0 1 0 0 0
POINTS 608
DATA ascii
-40.300007 19.699995 1.699995 4281492480
-39.500004 -39.900005 0.49999499 4281492480
-39.900005 -10.100005 0.89999503 4281492480
-39.700005 40.099995 1.099995 4281492480
-39.900005 4.699995 0.49999499 4281492480
-39.900005 -24.900005 1.099995 4281492480
-39.900005 30.099995 1.099995 4281492480
-40.300007 19.699995 9.8999949 4281492480
-39.700005 12.299995 0.099995002 4281492480
-39.700005 -32.500004 1.099995 4281492480
-39.900005 -2.9000051 0.69999498 4281492480
-39.900005 -17.100004 0.099995002 4281492480
-39.700005 24.699995 1.2999949 4281492480
-39.700005 35.099995 0.89999503 4281492480
-39.500004 -21.100004 0.49999499 4281492480
-39.900005 8.4999952 0.29999501 4281492480
-40.300007 19.699995 5.4999952 4281492480
-39.500004 -28.900005 1.499995 4281492480
-39.900005 -6.5000048 1.099995 4281492480
-39.900005 0.69999498 0.69999498 4281492480
-39.500004 -13.700005 0.69999498 4281492480
-39.900005 16.499994 0.49999499 4281492480
-39.500004 -35.700005 0.89999503 4281492480
-39.700005 22.099995 0.69999498 4281492480
-39.900005 27.099995 0.69999498 4281492480
-39.700005 20.299995 7.4999952 4281492480
-39.700005 14.299995 0.69999498 4281492480
-39.500004 -37.700005 0.29999501 4281492480
-39.700005 2.699995 0.69999498 4281492480
-39.900005 38.099995 1.099995 4281492480
-39.900005 33.099995 0.89999503 4281492480
-39.900005 -19.100004 0.29999501 4281492480
-40.500004 20.299995 3.699995 4281492480
-39.900005 -23.100004 0.49999499 4281492480
-39.700005 10.499995 0.49999499 4281492480
-39.700005 6.4999952 0.29999501 4281492480
-39.900005 18.299995 0.49999499 4281492480
-39.900005 -26.700005 1.099995 4281492480
-39.900005 -12.100005 0.89999503 4281492480
-39.700005 -8.1000051 0.89999503 4281492480
-39.700005 -4.9000049 0.89999503 4281492480
-39.700005 -30.900005 1.2999949 4281492480
-39.900005 -15.100005 0.29999501 4281492480
-39.900005 -1.500005 0.49999499 4281492480
-39.500004 -34.300007 0.69999498 4281492480
-40.300007 20.299995 8.699995 4281492480
-39.700005 31.299995 0.89999503 4281492480
-40.300007 19.699995 6.699995 4281492480
-39.900005 -38.700005 0.49999499 4281492480
-39.700005 20.099995 0.89999503 4281492480
-39.700005 36.099995 1.2999949 4281492480
-39.500004 -16.100004 0.29999501 4281492480
-39.900005 15.299995 0.49999499 4281492480
-39.700005 -0.30000499 0.89999503 4281492480
-39.700005 29.099995 0.89999503 4281492480
-39.700005 -36.700005 0.49999499 4281492480
-40.500004 19.899996 2.699995 4281492480
-39.900005 21.099995 0.69999498 4281492480
-39.700005 -18.100004 0.29999501 4281492480
-39.900005 -29.900005 1.2999949 4281492480
-39.900005 -11.100005 0.69999498 4281492480
-39.900005 34.099995 0.69999498 4281492480
-39.900005 -9.1000051 0.69999498 4281492480
-39.500004 -20.100004 0.29999501 4281492480
-39.300007 20.699995 0.89999503 4281492480
-38.900005 -39.900005 0.099995002 4281492480
-39.300007 -9.5000048 1.099995 4281492480
-39.100006 40.099995 1.099995 4281492480
-39.100006 5.4999952 0.49999499 4281492480
-38.900005 -24.500006 1.099995 4281492480
-39.100006 30.299995 0.69999498 4281492480
-39.500004 19.699995 9.8999949 4281492480
-39.300007 -32.300007 1.2999949 4281492480
-39.300007 -16.900005 0.099995002 4281492480
-39.100006 13.299995 0.49999499 4281492480
-39.100006 -1.900005 0.69999498 4281492480
-39.100006 25.499994 1.099995 4281492480
-39.500004 34.899994 1.2999949 4281492480
-39.300007 -28.500006 1.099995 4281492480
-39.500004 17.099995 0.099995002 4281492480
-39.300007 -35.900005 0.69999498 4281492480
-39.100006 9.0999947 0.29999501 4281492480
-38.900005 -21.100004 0.49999499 4281492480
-39.100006 -5.300005 1.2999949 4281492480
-39.300007 -12.900005 0.69999498 4281492480
-39.300007 1.499995 0.49999499 4281492480
-39.100006 20.099995 6.699995 4281492480
-39.100006 37.499996 1.499995 4281492480
-39.500004 23.299995 0.89999503 4281492480
-39.100006 32.499996 1.099995 4281492480
-38.900005 -18.900005 -0.100005 4281492480
-39.300007 28.299995 0.89999503 4281492480
-39.300007 -26.500006 1.2999949 4281492480
-38.900005 -30.300005 1.2999949 4281492480
-38.900005 -34.100006 0.69999498 4281492480
-39.100006 -7.7000051 0.89999503 4281492480
-39.100006 3.699995 0.49999499 4281492480
-39.100006 15.099995 0.49999499 4281492480
-39.500004 -3.500005 1.099995 4281492480
-39.100006 -11.300005 1.099995 4281492480
-39.500004 19.099995 0.49999499 4281492480
-39.500004 20.299995 8.2999954 4281492480
-39.500004 10.699995 0.49999499 4281492480
-39.300007 -38.300007 0.29999501 4281492480
-39.500004 -0.100005 0.69999498 4281492480
-39.100006 -14.500005 0.49999499 4281492480
-38.900005 -22.700005 0.49999499 4281492480
-39.100006 7.4999952 0.29999501 4281492480
-39.500004 26.699995 1.099995 4281492480
-39.500004 22.099995 1.099995 4281492480
-39.500004 31.499994 1.099995 4281492480
-39.500004 39.099995 1.099995 4281492480
-39.500004 35.899994 1.099995 4281492480
-39.300007 11.699995 0.49999499 4281492480
-39.300007 -23.500006 0.89999503 4281492480
-39.500004 6.699995 0.69999498 4281492480
-39.500004 19.699995 7.4999952 4281492480
-39.100006 20.299995 9.2999954 4281492480
-38.900005 -37.500004 0.49999499 4281492480
-39.300007 -21.900005 0.29999501 4281492480
-38.900005 -29.300005 1.2999949 4281492480
-39.100006 -20.300005 0.099995002 4281492480
-39.100006 -0.90000498 0.49999499 4281492480
-39.500004 8.2999954 0.49999499 4281492480
-39.500004 14.099995 0.29999501 4281492480
-39.100006 24.099995 1.099995 4281492480
-39.100006 16.299995 0.29999501 4281492480
-39.300007 -10.300005 0.69999498 4281492480
-38.500004 -4.5000048 0.89999503 4281492480
-38.900005 40.099995 1.099995 4281492480
-38.500004 -39.900005 0.099995002 4281492480
-38.500004 19.699995 9.8999949 4281492480
-38.500004 -22.100004 0.29999501 4281492480
-38.700005 9.4999952 0.29999501 4281492480
-38.900005 27.899996 0.89999503 4281492480
-38.900005 -13.300005 0.49999499 4281492480
-38.700005 18.299995 0.29999501 4281492480
-38.500004 -31.500006 1.2999949 4281492480
-38.500004 2.8999951 0.69999498 4281492480
-38.900005 34.099995 1.099995 4281492480
-38.500004 22.899996 1.099995 4281492480
-38.700005 -26.700005 0.89999503 4281492480
-38.500004 13.699995 0.69999498 4281492480
-38.900005 -8.5000048 0.89999503 4281492480
-38.500004 -18.100004 0.099995002 4281492480
-38.300007 -35.300007 0.49999499 4281492480
-38.900005 -0.90000498 0.89999503 4281492480
-38.900005 20.099995 6.699995 4281492480
-38.900005 6.4999952 0.69999498 4281492480
-38.900005 31.099995 0.89999503 4281492480
-38.700005 37.299995 1.2999949 4281492480
-38.900005 25.299995 1.099995 4281492480
-38.500004 -15.700005 0.29999501 4281492480
-38.900005 -10.900005 0.89999503 4281492480
-38.300007 -37.700005 0.29999501 4281492480
-38.500004 -6.5000048 1.2999949 4281492480
-38.500004 11.499995 0.49999499 4281492480
-38.700005 -29.500006 1.099995 4281492480
-38.900005 16.299995 0.29999501 4281492480
-38.700005 -20.100004 0.099995002 4281492480
-38.700005 -24.700005 1.099995 4281492480
-38.700005 -33.300007 0.69999498 4281492480
-38.500004 21.099995 0.49999499 4281492480
-38.700005 0.89999503 0.69999498 4281492480
-38.900005 -2.7000051 0.69999498 4281492480
-38.500004 4.699995 0.69999498 4281492480
-38.500004 20.299995 8.2999954 4281492480
-38.500004 29.299995 1.099995 4281492480
-38.500004 35.899994 1.2999949 4281492480
-38.500004 19.699995 0.69999498 4281492480
-38.500004 32.899994 0.89999503 4281492480
-38.900005 15.099995 0.69999498 4281492480
-38.500004 38.499996 1.499995 4281492480
-38.700005 7.699995 0.49999499 4281492480
-38.500004 -12.300005 0.69999498 4281492480
-38.500004 26.299995 1.099995 4281492480
-38.700005 -14.300005 0.29999501 4281492480
-38.900005 10.499995 0.29999501 4281492480
-38.500004 -25.700005 1.099995 4281492480
-38.700005 -28.500006 1.2999949 4281492480
-38.500004 -7.5000048 1.099995 4281492480
-38.300007 -34.300007 0.69999498 4281492480
-38.500004 -30.500006 1.099995 4281492480
-38.500004 12.499995 0.29999501 4281492480
-38.900005 -9.5000048 0.89999503 4281492480
-38.500004 -17.100004 0.099995002 4281492480
-38.900005 17.299995 0.29999501 4281492480
-38.700005 -21.100004 0.099995002 4281492480
-38.700005 -19.100004 0.099995002 4281492480
-38.700005 1.899995 0.69999498 4281492480
-38.900005 -5.300005 1.2999949 4281492480
-38.500004 19.699995 7.4999952 4281492480
-38.300007 27.299995 1.2999949 4281492480
-38.100006 -39.900005 0.099995002 4281492480
-38.100006 -6.5000048 0.89999503 4281492480
-37.900005 10.099995 0.49999499 4281492480
-38.300007 -23.100004 0.89999503 4281492480
-38.300007 40.099995 1.099995 4281492480
-37.900005 20.299995 9.8999949 4281492480
-37.900005 18.699995 0.49999499 4281492480
-38.100006 -31.500006 0.89999503 4281492480
-38.300007 -14.700005 0.29999501 4281492480
-37.900005 1.699995 0.49999499 4281492480
-38.300007 34.099995 0.89999503 4281492480
-37.900005 19.899996 5.0999951 4281492480
-37.900005 -35.700005 0.49999499 4281492480
-38.300007 14.299995 0.49999499 4281492480
-37.900005 -27.300005 0.89999503 4281492480
-38.300007 -18.900005 0.099995002 4281492480
-37.900005 -10.700005 1.2999949 4281492480
-38.100006 23.299995 0.89999503 4281492480
-37.900005 6.0999951 0.89999503 4281492480
-37.900005 -2.500005 1.099995 4281492480
-38.100006 30.299995 0.89999503 4281492480
-38.300007 37.099995 1.499995 4281492480
-38.300007 19.699995 7.699995 4281492480
-38.300007 3.8999951 0.69999498 4281492480
-38.100006 16.499994 0.29999501 4281492480
-37.900005 21.099995 0.89999503 4281492480
-37.900005 20.099995 2.8999951 4281492480
-37.900005 -21.100004 0.099995002 4281492480
-38.100006 -0.30000499 1.099995 4281492480
-37.900005 -12.700005 0.89999503 4281492480
-37.900005 -33.700005 0.89999503 4281492480
-37.900005 -29.300005 1.2999949 4281492480
-38.300007 12.299995 0.69999498 4281492480
-37.900005 -37.700005 0.29999501 4281492480
-38.300007 -25.100004 0.89999503 4281492480
-38.300007 -16.700005 0.29999501 4281492480
-38.100006 -4.5000048 0.89999503 4281492480
-37.900005 7.8999949 0.69999498 4281492480
-38.100006 24.899996 1.499995 4281492480
-38.100006 31.899996 1.099995 4281492480
-37.900005 -9.1000051 1.2999949 4281492480
-38.100006 35.499996 1.499995 4281492480
-38.100006 38.699993 1.499995 4281492480
-38.300007 28.899996 0.89999503 4281492480
-37.900005 19.899996 6.4999952 4281492480
-38.300007 -7.9000049 1.2999949 4281492480
-37.900005 19.899996 0.69999498 4281492480
-37.900005 19.899996 8.699995 4281492480
-37.900005 5.0999951 0.49999499 4281492480
-37.900005 20.299995 1.699995 4281492480
-37.900005 22.299995 1.099995 4281492480
-37.900005 20.299995 3.8999951 4281492480
-37.900005 -18.100004 -0.100005 4281492480
-37.900005 -25.900005 1.099995 4281492480
-37.900005 3.0999949 0.49999499 4281492480
-38.300007 -1.100005 0.69999498 4281492480
-37.900005 26.499994 1.2999949 4281492480
-38.300007 11.499995 0.29999501 4281492480
-38.300007 -30.100004 1.2999949 4281492480
-37.900005 17.899996 0.099995002 4281492480
-37.900005 24.099995 1.2999949 4281492480
-37.900005 -32.300007 1.099995 4281492480
-38.300007 0.49999499 0.89999503 4281492480
-37.700005 10.299995 0.49999499 4281492480
-37.500004 -39.900005 0.099995002 4281492480
-37.500004 40.099995 1.2999949 4281492480
-37.700005 -14.700005 0.29999501 4281492480
-37.500004 25.299995 1.2999949 4281492480
-37.500004 -27.700005 0.89999503 4281492480
-37.500004 -2.500005 0.89999503 4281492480
-37.700005 19.699995 9.8999949 4281492480
-37.500004 -33.900005 5.4999952 4281492480
-37.500004 18.099995 0.099995002 4281492480
-37.700005 32.099995 0.69999498 4281492480
-37.500004 -21.700005 0.29999501 4281492480
-37.500004 3.499995 0.49999499 4281492480
-37.700005 -8.300005 1.099995 4281492480
-37.300007 -34.500004 0.29999501 4281492480
-37.700005 20.299995 4.699995 4281492480
-37.500004 -29.500006 5.4999952 4281492480
-37.300007 -37.100006 3.0999949 4281492480
-37.700005 14.299995 0.29999501 4281492480
-37.900005 35.499996 1.499995 4281492480
-37.700005 21.899996 0.69999498 4281492480
-37.500004 28.699995 0.89999503 4281492480
-37.700005 -30.900005 1.099995 4281492480
-37.500004 -17.700005 -0.100005 4281492480
-37.500004 6.4999952 0.89999503 4281492480
-37.500004 0.49999499 0.69999498 4281492480
-37.700005 -24.500006 0.89999503 4281492480
-37.500004 -11.900005 0.69999498 4281492480
-37.500004 -5.300005 1.099995 4281492480
-37.300007 -36.900005 5.699995 4281492480
-37.500004 -37.300007 0.099995002 4281492480
-37.700005 19.699995 2.2999949 4281492480
-37.700005 20.299995 7.4999952 4281492480
-37.300007 -34.500004 3.2999949 4281492480
-37.900005 37.899994 1.499995 4281492480
-37.500004 -28.500006 3.499995 4281492480
-37.500004 -19.700005 0.29999501 4281492480
-37.700005 8.2999954 0.49999499 4281492480
-37.700005 12.499995 0.69999498 4281492480
-37.500004 -10.100005 1.2999949 4281492480
-37.500004 19.899996 0.29999501 4281492480
-37.700005 16.299995 0.099995002 4281492480
-37.300007 -35.700005 1.499995 4281492480
-37.500004 -31.100004 5.4999952 4281492480
-37.300007 -35.300007 4.4999952 4281492480
-37.500004 -29.500006 0.89999503 4281492480
-37.500004 34.299995 0.89999503 4281492480
-37.500004 -32.500004 5.4999952 4281492480
-37.700005 19.699995 5.8999949 4281492480
-37.900005 27.499994 1.2999949 4281492480
-37.900005 30.899996 1.099995 4281492480
-37.700005 -33.500004 0.89999503 4281492480
-37.700005 -32.100006 0.89999503 4281492480
-37.300007 -34.500004 1.699995 4281492480
-37.300007 -35.900005 2.699995 4281492480
-37.700005 -0.70000499 0.69999498 4281492480
-37.700005 -25.700005 1.099995 4281492480
-37.700005 23.099995 0.89999503 4281492480
-37.700005 20.299995 3.499995 4281492480
-37.300007 -37.100006 4.2999949 4281492480
-37.700005 20.299995 8.699995 4281492480
-37.500004 -29.700005 3.499995 4281492480
-37.500004 36.899994 1.2999949 4281492480
-37.500004 24.099995 1.2999949 4281492480
-37.300007 33.699993 1.099995 4281492480
-37.100006 -39.900005 0.099995002 4281492480
-37.300007 -3.1000049 1.2999949 4281492480
-37.100006 15.299995 0.099995002 4281492480
-37.100006 -21.700005 0.49999499 4281492480
-37.300007 -30.700005 5.2999949 4281492480
-37.100006 6.0999951 0.69999498 4281492480
-37.300007 -12.100005 0.69999498 4281492480
-37.100006 24.899996 1.499995 4281492480
-37.300007 40.099995 1.2999949 4281492480
-36.900005 -36.900005 5.8999949 4281492480
-37.100006 -33.700005 0.49999499 4281492480
-37.300007 -27.500006 1.099995 4281492480
-37.100006 20.099995 0.69999498 4281492480
-37.100006 -16.700005 0.099995002 4281492480
-37.100006 10.699995 0.69999498 4281492480
-37.300007 1.099995 0.69999498 4281492480
-37.100006 -7.300005 1.499995 4281492480
-37.300007 29.499994 1.099995 4281492480
-37.100006 -37.100006 2.499995 4281492480
-37.300007 -33.500004 4.0999951 4281492480
-37.300007 -30.700005 2.2999949 4281492480
-37.300007 36.499996 1.499995 4281492480
-37.300007 -28.500006 3.499995 4281492480
-37.300007 -24.100004 1.099995 4281492480
-36.900005 -36.900005 0.099995002 4281492480
-37.300007 -19.300005 0.29999501 4281492480
-37.100006 3.499995 0.69999498 4281492480
-37.100006 22.699995 0.89999503 4281492480
-37.300007 -14.300005 0.099995002 4281492480
-37.300007 17.899996 0.29999501 4281492480
-37.300007 -9.5000048 1.2999949 4281492480
-37.300007 8.4999952 0.49999499 4281492480
-36.900005 -34.700005 6.0999951 4281492480
-37.100006 13.099995 0.29999501 4281492480
-37.300007 27.299995 1.2999949 4281492480
-37.100006 -5.1000051 1.099995 4281492480
-36.900005 -35.500004 1.2999949 4281492480
-37.300007 -1.300005 0.89999503 4281492480
-37.100006 38.299995 1.2999949 4281492480
-37.100006 -31.900005 0.69999498 4281492480
-37.300007 -29.300005 1.099995 4281492480
-37.300007 31.899996 1.099995 4281492480
-36.900005 -35.500004 4.4999952 4281492480
-37.100006 -32.500004 5.4999952 4281492480
-37.300007 -34.100006 2.499995 4281492480
-37.300007 -31.700005 4.0999951 4281492480
-37.300007 -32.300007 2.0999949 4281492480
-37.300007 -29.700005 4.2999949 4281492480
-36.900005 -35.500004 2.699995 4281492480
-37.100006 -37.100006 3.8999951 4281492480
-37.100006 -18.100004 -0.100005 4281492480
-37.100006 -10.700005 0.89999503 4281492480
-37.100006 30.699995 0.89999503 4281492480
-37.100006 -38.100006 0.29999501 4281492480
-37.300007 4.699995 0.89999503 4281492480
-37.100006 -25.300005 1.099995 4281492480
-37.100006 21.299995 0.89999503 4281492480
-37.300007 35.299995 1.2999949 4281492480
-37.100006 2.2999949 0.49999499 4281492480
-37.300007 11.899995 0.69999498 4281492480
-37.100006 7.2999949 0.49999499 4281492480
-37.100006 -15.500005 -0.100005 4281492480
-37.100006 26.099995 1.2999949 4281492480
-36.500004 -30.300005 3.2999949 4281492480
-36.700005 40.099995 1.2999949 4281492480
-36.700005 5.2999949 0.89999503 4281492480
-36.700005 -12.300005 0.49999499 4281492480
-36.700005 22.299995 1.099995 4281492480
-36.500004 -39.900005 0.29999501 4281492480
-36.500004 -21.900005 0.49999499 4281492480
-36.900005 30.699995 1.099995 4281492480
-36.700005 14.099995 0.29999501 4281492480
-36.700005 -4.1000051 1.2999949 4281492480
-36.500004 -36.300007 6.4999952 4281492480
-36.700005 -34.500004 0.29999501 4281492480
-36.700005 -17.100004 0.099995002 4281492480
-36.700005 35.299995 1.099995 4281492480
-36.700005 0.69999498 0.69999498 4281492480
-36.900005 -26.500006 1.099995 4281492480
-36.900005 -8.300005 1.099995 4281492480
-36.700005 10.299995 0.69999498 4281492480
-36.700005 18.699995 0.29999501 4281492480
-36.500004 -37.100006 2.8999951 4281492480
-36.900005 25.899996 1.2999949 4281492480
-36.500004 -32.700005 6.4999952 4281492480
-36.500004 -29.100004 0.89999503 4281492480
-36.500004 -37.100006 0.29999501 4281492480
-36.900005 -29.700005 5.699995 4281492480
-36.900005 -31.500006 1.099995 4281492480
-36.700005 37.699993 1.699995 4281492480
-36.900005 7.8999949 0.49999499 4281492480
-36.900005 -14.700005 0.29999501 4281492480
-36.900005 -19.500006 0.099995002 4281492480
-36.900005 28.299995 0.89999503 4281492480
-36.500004 -24.100004 0.89999503 4281492480
-36.900005 33.099995 1.099995 4281492480
-36.700005 16.299995 0.29999501 4281492480
-36.700005 2.8999951 0.69999498 4281492480
-36.700005 -1.300005 1.2999949 4281492480
-36.700005 -35.500004 4.0999951 4281492480
-36.900005 -28.500006 3.499995 4281492480
-36.900005 -10.100005 0.89999503 4281492480
-36.900005 -6.5000048 1.099995 4281492480
-36.500004 -35.500004 1.699995 4281492480
-36.500004 -37.100006 4.699995 4281492480
-36.500004 -31.300005 5.2999949 4281492480
-36.500004 -34.700005 6.2999949 4281492480
-36.900005 -2.7000051 1.099995 4281492480
-36.900005 11.699995 0.69999498 4281492480
-36.900005 -31.300005 2.499995 4281492480
-36.900005 19.899996 0.69999498 4281492480
-36.500004 -27.700005 0.89999503 4281492480
-36.900005 6.699995 0.89999503 4281492480
-36.900005 -32.700005 0.69999498 4281492480
-36.900005 -20.700005 0.49999499 4281492480
-36.500004 -18.300005 0.29999501 4281492480
-36.700005 24.699995 1.099995 4281492480
-36.900005 -31.300005 3.8999951 4281492480
-36.700005 27.099995 1.099995 4281492480
-36.900005 17.499994 0.099995002 4281492480
-36.900005 36.499996 1.499995 4281492480
-36.900005 38.899994 1.699995 4281492480
-36.700005 21.099995 0.89999503 4281492480
-36.700005 9.0999947 0.89999503 4281492480
-36.900005 4.0999951 0.89999503 4281492480
-36.700005 -5.300005 1.499995 4281492480
-36.700005 31.899996 1.099995 4281492480
-36.100006 4.2999949 0.89999503 4281492480
-36.100006 -39.900005 0.099995002 4281492480
-36.500004 40.099995 1.2999949 4281492480
-36.300007 -18.100004 0.099995002 4281492480
-36.100006 22.299995 0.69999498 4281492480
-36.100006 -30.100004 6.0999951 4281492480
-36.100006 -7.300005 1.2999949 4281492480
-36.300007 31.299995 5.0999951 4281492480
-36.100006 13.099995 0.49999499 4281492480
-36.300007 -25.300005 0.89999503 4281492480
-36.300007 -36.700005 6.0999951 4281492480
-36.300007 -33.300007 0.49999499 4281492480
-36.100006 -1.500005 1.2999949 4281492480
-36.300007 25.699995 5.2999949 4281492480
-36.300007 34.299995 0.89999503 4281492480
-36.100006 -12.300005 0.099995002 4281492480
-36.500004 28.499994 0.89999503 4281492480
-36.500004 17.899996 0.29999501 4281492480
-36.500004 8.699995 0.89999503 4281492480
-36.300007 -29.300005 0.89999503 4281492480
-36.100006 -37.100006 2.0999949 4281492480
-36.100006 -21.900005 0.69999498 4281492480
-36.300007 -33.100006 6.4999952 4281492480
-36.300007 37.099995 1.499995 4281492480
-36.100006 25.699995 1.2999949 4281492480
-36.300007 -31.300005 2.8999951 4281492480
-36.500004 1.099995 0.69999498 4281492480
-36.500004 -4.1000051 1.2999949 4281492480
-36.300007 28.699995 5.2999949 4281492480
-36.100006 -14.900005 0.29999501 4281492480
-36.500004 31.699995 0.89999503 4281492480
-36.300007 -28.700005 3.2999949 4281492480
-36.100006 -9.7000046 1.099995 4281492480
-36.100006 -35.900005 0.099995002 4281492480
-36.300007 -35.500004 3.499995 4281492480
-36.100006 15.899995 0.29999501 4281492480
-36.100006 10.499995 0.69999498 4281492480
-36.500004 6.0999951 0.89999503 4281492480
-36.100006 19.699995 0.29999501 4281492480
-36.100006 -37.700005 0.099995002 4281492480
-36.500004 23.899996 1.2999949 4281492480
-36.100006 -30.100004 4.2999949 4281492480
-36.300007 -23.500006 1.099995 4281492480
-36.300007 -19.700005 0.49999499 4281492480
-36.100006 2.699995 0.49999499 4281492480
-36.300007 -31.700005 0.69999498 4281492480
-36.300007 -26.900005 1.099995 4281492480
-36.100006 -37.100006 3.699995 4281492480
-36.300007 -16.500006 0.099995002 4281492480
-36.300007 -29.900005 2.2999949 4281492480
-36.300007 -31.300005 5.0999951 4281492480
-36.100006 -5.5000048 1.2999949 4281492480
-36.100006 -35.300007 6.0999951 4281492480
-36.300007 -35.500004 2.0999949 4281492480
-36.500004 38.299995 1.699995 4281492480
-36.500004 29.699995 1.099995 4281492480
-36.300007 29.899996 5.0999951 4281492480
-36.100006 -35.500004 4.699995 4281492480
-36.300007 27.299995 0.89999503 4281492480
-36.300007 27.499994 5.2999949 4281492480
-36.100006 -31.100004 6.699995 4281492480
-36.500004 20.699995 0.49999499 4281492480
-36.500004 -2.500005 1.499995 4281492480
-36.500004 14.899995 0.29999501 4281492480
-39.900005 -39.700005 -39.900005 4284743680
-23.100004 40.099995 8.4999952 4284743680
0.49999499 1.099995 0.29999501 4284743680
-39.300007 -39.100006 -39.100006 4284743680
-13.700005 40.099995 13.299995 4284743680
0.49999499 1.099995 0.49999499 4284743680
-38.500004 -38.500004 -38.900005 4284743680
21.099995 -39.900005 -9.5000048 4284743680
0.49999499 0.099995002 0.89999503 4284743680
-38.100006 -38.100006 -38.300007 4284743680
4.4999952 -39.900005 40.099995 4284743680
0.69999498 0.099995002 1.099995 4284743680
-37.700005 -37.500004 -37.500004 4284743680
21.899996 -39.900005 -9.1000051 4284743680
0.69999498 0.099995002 1.099995 4284743680
-36.900005 -37.300007 -37.100006 4284743680
-35.500004 40.099995 2.2999949 4284743680
4.4999952 1.2999949 0.49999499 4284743680
-36.700005 -36.700005 -36.700005 4284743680
-36.300007 40.099995 1.899995 4284743680
0.099995002 1.2999949 0.69999498 4284743680
-36.300007 -36.500004 -36.100006 4284743680
-14.100005 40.099995 13.099995 4284743680
0.29999501 1.2999949 0.49999499 4284743680
-39.900005 -39.700005 -39.700005 4294967040
-16.300005 40.099995 11.899995 4294967040
0.099995002 1.099995 0.29999501 4294967040
-39.500004 -39.100006 -38.900005 4294967040
-1.300005 40.099995 -39.900005 4294967040
0.69999498 1.099995 0.099995002 4294967040
-38.700005 -38.900005 -38.500004 4294967040
-1.100005 40.099995 -39.900005 4294967040
0.69999498 1.099995 0.099995002 4294967040
-37.900005 -38.100006 -38.300007 4294967040
11.299995 -39.900005 40.099995 4294967040
0.49999499 0.099995002 1.099995 4294967040
-37.700005 -37.500004 -37.500004 4294967040
-1.900005 40.099995 -39.900005 4294967040
1.099995 1.2999949 0.099995002 4294967040
-36.900005 -37.300007 -37.300007 4294967040
-36.300007 40.099995 1.899995 4294967040
0.29999501 1.2999949 0.49999499 4294967040
-36.900005 -36.500004 -36.900005 4294967040
14.299995 -39.900005 -12.900005 4294967040
0.099995002 0.29999501 0.49999499 4294967040
-36.500004 -36.100006 -36.300007 4294967040
15.299995 -39.900005 -12.300005 4294967040
0.29999501 0.099995002 0.29999501 4294967040
-39.700005 -39.900005 -39.700005 4294902015
38.899994 -39.900005 -0.50000501 4294902015
1.2999949 0.29999501 0.69999498 4294902015
-39.100006 -38.900005 -39.500004 4294902015
7.0999951 -39.900005 40.099995 4294902015
0.69999498 0.099995002 1.099995 4294902015
-38.500004 -38.700005 -38.900005 4294902015
9.2999954 -39.900005 40.099995 4294902015
0.49999499 0.099995002 1.099995 4294902015
-37.900005 -38.100006 -38.300007 4294902015
1.499995 -39.900005 40.099995 4294902015
0.49999499 0.099995002 1.099995 4294902015
-37.300007 -37.900005 -37.700005 4294902015
-36.500004 40.099995 1.699995 4294902015
3.8999951 1.099995 0.49999499 4294902015
-37.300007 -36.900005 -37.100006 4294902015
2.699995 -39.900005 40.099995 4294902015
0.69999498 0.099995002 1.2999949 4294902015
-36.700005 -36.900005 -36.900005 4294902015
-35.500004 40.099995 2.0999949 4294902015
5.0999951 1.2999949 0.49999499 4294902015
-36.100006 -36.500004 -36.100006 4294902015
-25.700005 40.099995 7.2999949 4294902015
0.89999503 1.2999949 0.69999498 4294902015
-40.500004 -40.500004 -40.500004 4278255360
19.899996 19.899996 19.899996 4278255360
1.699995 1.899995 2.0999949 4278255360
-39.500004 -39.500004 -39.500004 4278255360
-4.1000051 -4.1000051 -3.9000051 4278255360
0.89999503 1.099995 0.89999503 4278255360
-38.900005 -38.900005 -38.900005 4278255360
-17.700005 -17.700005 -17.500006 4278255360
0.099995002 0.29999501 0.099995002 4278255360
-38.300007 -38.300007 -38.300007 4278255360
-30.100004 -29.900005 -29.900005 4278255360
1.2999949 1.099995 1.2999949 4278255360
-37.900005 -37.900005 -37.900005 4278255360
27.299995 27.499994 27.499994 4278255360
1.2999949 1.099995 1.2999949 4278255360
-37.300007 -37.300007 -37.300007 4278255360
-34.100006 -34.100006 -34.100006 4278255360
1.099995 1.2999949 1.499995 4278255360
-36.900005 -36.900005 -36.900005 4278255360
-34.100006 -34.100006 -34.100006 4278255360
0.49999499 0.69999498 5.8999949 4278255360
-36.500004 -36.500004 -36.500004 4278255360
-4.7000051 -4.5000048 -4.5000048 4278255360
1.2999949 1.099995 1.2999949 4278255360
