# .PCD v0.7 - Point Cloud Data file format
VERSION 0.7
FIELDS x y z rgb
SIZE 4 4 4 4
TYPE F F F U
COUNT 1 1 1 1
WIDTH 1117
HEIGHT 1
VIEWPOINT 0 0 0 1 0 0 0
POINTS 1117
DATA ascii
-70.500008 -17.500006 7.0999951 4294901760
-70.500008 -17.500006 7.4999952 4294901760
-70.500008 -17.500006 7.699995 4294901760
-70.500008 -17.300005 7.4999952 4294901760
-70.500008 -17.300005 7.8999949 4294901760
-70.500008 -17.100004 7.4999952 4294901760
-70.500008 -17.100004 7.8999949 4294901760
-70.500008 -16.900005 7.4999952 4294901760
-70.500008 -16.900005 7.8999949 4294901760
-70.500008 -16.700005 7.4999952 4294901760
-70.500008 -16.700005 7.8999949 4294901760
-70.500008 -16.500006 7.4999952 4294901760
-70.500008 -16.500006 8.0999947 4294901760
-70.500008 -16.300005 7.4999952 4294901760
-70.500008 -16.300005 8.0999947 4294901760
-70.500008 -16.100004 7.4999952 4294901760
-70.500008 -16.100004 8.0999947 4294901760
-70.500008 -15.900005 7.4999952 4294901760
-70.500008 -15.900005 8.0999947 4294901760
-70.500008 -15.700005 7.4999952 4294901760
-70.500008 -15.700005 8.2999954 4294901760
-70.500008 -15.500005 7.8999949 4294901760
-70.500008 -15.500005 8.0999947 4294901760
-70.500008 -15.500005 8.2999954 4294901760
-70.500008 -15.300005 7.8999949 4294901760
-70.500008 -15.300005 8.0999947 4294901760
-70.500008 -15.300005 8.4999952 4294901760
-70.500008 -15.100005 7.8999949 4294901760
-70.500008 -15.100005 8.0999947 4294901760
-70.500008 -15.100005 8.4999952 4294901760
-70.500008 -14.900005 7.8999949 4294901760
-70.500008 -14.900005 8.0999947 4294901760
-70.500008 -14.900005 8.4999952 4294901760
-70.500008 -14.700005 7.8999949 4294901760
-70.500008 -14.700005 8.0999947 4294901760
-70.500008 -14.700005 8.699995 4294901760
-70.500008 -14.500005 7.8999949 4294901760
-70.500008 -14.500005 8.0999947 4294901760
-70.500008 -14.500005 8.699995 4294901760
-70.500008 -14.300005 7.8999949 4294901760
-70.500008 -14.300005 8.0999947 4294901760
-70.500008 -14.300005 8.8999949 4294901760
-70.500008 -14.100005 7.8999949 4294901760
-70.500008 -14.100005 8.0999947 4294901760
-70.500008 -14.100005 8.8999949 4294901760
-70.500008 -13.900005 7.8999949 4294901760
-70.500008 -13.900005 8.0999947 4294901760
-70.500008 -13.900005 9.0999947 4294901760
-70.500008 -13.700005 7.8999949 4294901760
-70.500008 -13.700005 8.0999947 4294901760
-70.500008 -13.700005 9.0999947 4294901760
-70.500008 -13.500005 8.8999949 4294901760
-70.500008 -13.500005 9.2999954 4294901760
-70.500008 -13.300005 8.8999949 4294901760
-70.500008 -13.300005 9.2999954 4294901760
-70.500008 -13.100005 8.8999949 4294901760
-70.500008 -13.100005 9.4999952 4294901760
-70.500008 -12.900005 8.8999949 4294901760
-70.500008 -12.900005 9.4999952 4294901760
-70.500008 -12.700005 8.8999949 4294901760
-70.500008 -12.700005 9.699995 4294901760
-70.500008 -12.500005 8.8999949 4294901760
-70.500008 -12.500005 9.699995 4294901760
-70.500008 -12.300005 8.8999949 4294901760
-70.500008 -12.300005 9.8999949 4294901760
-70.500008 -12.100005 8.8999949 4294901760
-70.500008 -12.100005 9.8999949 4294901760
-70.500008 -11.900005 8.8999949 4294901760
-70.500008 -11.900005 9.8999949 4294901760
-70.500008 -11.700005 8.8999949 4294901760
-70.500008 -11.700005 9.699995 4294901760
-70.500008 -11.700005 9.8999949 4294901760
-70.500008 -11.500005 9.699995 4294901760
-70.500008 -11.500005 9.8999949 4294901760
-70.500008 -11.300005 9.699995 4294901760
-70.500008 -11.300005 9.8999949 4294901760
-70.500008 -11.100005 9.699995 4294901760
-70.500008 -11.100005 9.8999949 4294901760
-70.500008 -10.900005 9.699995 4294901760
-70.500008 -10.900005 9.8999949 4294901760
-70.500008 -10.700005 9.699995 4294901760
-70.500008 -10.700005 9.8999949 4294901760
-70.500008 -10.500005 9.699995 4294901760
-70.500008 -10.500005 9.8999949 4294901760
-70.500008 -10.300005 9.699995 4294901760
-70.500008 -10.300005 9.8999949 4294901760
-70.500008 -10.100005 9.699995 4294901760
-70.500008 -10.100005 9.8999949 4294901760
-70.500008 -9.9000053 9.699995 4294901760
-70.500008 -9.9000053 9.8999949 4294901760
-70.500008 -9.7000046 9.8999949 4294901760
-70.300003 -70.300003 9.8999949 4294901760
-70.300003 -70.100006 9.8999949 4294901760
-70.300003 -69.900002 9.8999949 4294901760
-70.300003 -69.700005 9.8999949 4294901760
-70.300003 -69.500008 9.8999949 4294901760
-70.300003 -69.300003 9.8999949 4294901760
-70.300003 -69.100006 9.8999949 4294901760
-70.300003 -68.900002 9.8999949 4294901760
-70.300003 -68.700005 9.8999949 4294901760
-70.300003 -68.500008 9.8999949 4294901760
-70.300003 -68.300003 9.0999947 4294901760
-70.300003 -68.100006 9.0999947 4294901760
-70.300003 -67.900002 9.0999947 4294901760
-70.300003 -67.700005 9.0999947 4294901760
-70.300003 -67.500008 9.0999947 4294901760
-70.300003 -67.300003 9.0999947 4294901760
-70.300003 -67.100006 9.0999947 4294901760
-70.300003 -66.900002 9.0999947 4294901760
-70.300003 -66.700005 9.0999947 4294901760
-70.300003 -66.500008 8.4999952 4294901760
-70.300003 -66.500008 9.0999947 4294901760
-70.300003 -66.300003 8.4999952 4294901760
-70.300003 -66.100006 8.4999952 4294901760
-70.300003 -65.900002 8.4999952 4294901760
-70.300003 -65.700005 8.4999952 4294901760
-70.300003 -65.500008 8.4999952 4294901760
-70.300003 -65.300003 8.4999952 4294901760
-70.300003 -65.100006 8.4999952 4294901760
-70.300003 -65.100006 9.8999949 4294901760
-70.300003 -64.900002 8.4999952 4294901760
-70.300003 -64.900002 9.8999949 4294901760
-70.300003 -64.700005 8.4999952 4294901760
-70.300003 -64.700005 9.8999949 4294901760
-70.300003 -64.500008 7.8999949 4294901760
-70.300003 -64.500008 8.4999952 4294901760
-70.300003 -64.500008 9.699995 4294901760
-70.300003 -64.300003 7.699995 4294901760
-70.300003 -64.300003 7.8999949 4294901760
-70.300003 -64.300003 9.699995 4294901760
-70.300003 -64.100006 7.699995 4294901760
-70.300003 -64.100006 7.8999949 4294901760
-70.300003 -64.100006 9.699995 4294901760
-70.300003 -63.900005 7.699995 4294901760
-70.300003 -63.900005 7.8999949 4294901760
-70.300003 -63.900005 9.4999952 4294901760
-70.300003 -63.700005 7.699995 4294901760
-70.300003 -63.700005 7.8999949 4294901760
-70.300003 -63.700005 9.4999952 4294901760
-70.300003 -63.500004 7.699995 4294901760
-70.300003 -63.500004 7.8999949 4294901760
-70.300003 -63.500004 9.4999952 4294901760
-70.300003 -63.300007 7.699995 4294901760
-70.300003 -63.300007 7.8999949 4294901760
-70.300003 -63.300007 9.2999954 4294901760
-70.300003 -63.100006 7.699995 4294901760
-70.300003 -63.100006 7.8999949 4294901760
-70.300003 -63.100006 9.2999954 4294901760
-70.300003 -62.900005 7.699995 4294901760
-70.300003 -62.900005 7.8999949 4294901760
-70.300003 -62.900005 9.0999947 4294901760
-70.300003 -62.700005 7.699995 4294901760
-70.300003 -62.700005 7.8999949 4294901760
-70.300003 -62.700005 9.0999947 4294901760
-70.300003 -62.500004 7.4999952 4294901760
-70.300003 -62.500004 7.699995 4294901760
-70.300003 -62.500004 7.8999949 4294901760
-70.300003 -62.500004 9.0999947 4294901760
-70.300003 -62.300007 7.2999949 4294901760
-70.300003 -62.300007 7.4999952 4294901760
-70.300003 -62.300007 9.0999947 4294901760
-70.300003 -62.100006 7.2999949 4294901760
-70.300003 -62.100006 7.4999952 4294901760
-70.300003 -62.100006 8.8999949 4294901760
-70.300003 -61.900005 7.2999949 4294901760
-70.300003 -61.900005 7.4999952 4294901760
-70.300003 -61.900005 8.8999949 4294901760
-70.300003 -61.700005 7.2999949 4294901760
-70.300003 -61.700005 7.4999952 4294901760
-70.300003 -61.700005 8.8999949 4294901760
-70.300003 -61.500004 7.2999949 4294901760
-70.300003 -61.500004 7.4999952 4294901760
-70.300003 -61.500004 8.8999949 4294901760
-70.300003 -61.300007 7.2999949 4294901760
-70.300003 -61.300007 7.4999952 4294901760
-70.300003 -61.300007 8.699995 4294901760
-70.300003 -61.100006 7.2999949 4294901760
-70.300003 -61.100006 7.4999952 4294901760
-70.300003 -61.100006 8.699995 4294901760
-70.300003 -60.900005 7.2999949 4294901760
-70.300003 -60.900005 7.4999952 4294901760
-70.300003 -60.900005 8.699995 4294901760
-70.300003 -60.700005 7.2999949 4294901760
-70.300003 -60.700005 7.4999952 4294901760
-70.300003 -60.700005 8.699995 4294901760
-70.300003 -60.500004 7.0999951 4294901760
-70.300003 -60.500004 8.4999952 4294901760
-70.300003 -60.300007 7.0999951 4294901760
-70.300003 -60.300007 8.4999952 4294901760
-70.300003 -60.100006 7.0999951 4294901760
-70.300003 -60.100006 8.4999952 4294901760
-70.300003 -59.900005 7.0999951 4294901760
-70.300003 -59.900005 8.4999952 4294901760
-70.300003 -59.700005 7.0999951 4294901760
-70.300003 -59.700005 8.2999954 4294901760
-70.300003 -59.500004 7.0999951 4294901760
-70.300003 -59.500004 8.2999954 4294901760
-70.300003 -59.300007 7.0999951 4294901760
-70.300003 -59.300007 8.2999954 4294901760
-70.300003 -59.100006 7.0999951 4294901760
-70.300003 -59.100006 8.2999954 4294901760
-70.300003 -58.900005 7.0999951 4294901760
-70.300003 -58.900005 8.2999954 4294901760
-70.300003 -58.700005 7.0999951 4294901760
-70.300003 -58.700005 8.0999947 4294901760
-70.300003 -58.500004 6.699995 4294901760
-70.300003 -58.500004 6.8999949 4294901760
-70.300003 -58.500004 8.0999947 4294901760
-70.300003 -58.300007 6.699995 4294901760
-70.300003 -58.300007 6.8999949 4294901760
-70.300003 -58.300007 8.0999947 4294901760
-70.300003 -58.100006 6.699995 4294901760
-70.300003 -58.100006 6.8999949 4294901760
-70.300003 -58.100006 8.0999947 4294901760
-70.300003 -57.900005 6.699995 4294901760
-70.300003 -57.900005 6.8999949 4294901760
-70.300003 -57.900005 8.0999947 4294901760
-70.300003 -57.700005 6.699995 4294901760
-70.300003 -57.700005 6.8999949 4294901760
-70.300003 -57.700005 8.0999947 4294901760
-70.300003 -57.500004 6.699995 4294901760
-70.300003 -57.500004 6.8999949 4294901760
-70.300003 -57.500004 8.0999947 4294901760
-70.300003 -57.300007 6.699995 4294901760
-70.300003 -57.300007 6.8999949 4294901760
-70.300003 -57.300007 7.8999949 4294901760
-70.300003 -57.100006 6.699995 4294901760
-70.300003 -57.100006 6.8999949 4294901760
-70.300003 -57.100006 7.8999949 4294901760
-70.300003 -56.900005 6.699995 4294901760
-70.300003 -56.900005 6.8999949 4294901760
-70.300003 -56.900005 7.8999949 4294901760
-70.300003 -56.700005 6.699995 4294901760
-70.300003 -56.700005 6.8999949 4294901760
-70.300003 -56.700005 7.8999949 4294901760
-70.300003 -56.500004 6.4999952 4294901760
-70.300003 -56.500004 6.699995 4294901760
-70.300003 -56.500004 7.8999949 4294901760
-70.300003 -56.300007 6.4999952 4294901760
-70.300003 -56.300007 6.699995 4294901760
-70.300003 -56.300007 7.8999949 4294901760
-70.300003 -56.100006 6.4999952 4294901760
-70.300003 -56.100006 6.699995 4294901760
-70.300003 -56.100006 7.8999949 4294901760
-70.300003 -55.900005 6.4999952 4294901760
-70.300003 -55.900005 6.699995 4294901760
-70.300003 -55.900005 7.8999949 4294901760
-70.300003 -55.700005 6.4999952 4294901760
-70.300003 -55.700005 6.699995 4294901760
-70.300003 -55.700005 7.699995 4294901760
-70.300003 -55.500004 6.4999952 4294901760
-70.300003 -55.500004 6.699995 4294901760
-70.300003 -55.500004 7.699995 4294901760
-70.300003 -55.300007 6.4999952 4294901760
-70.300003 -55.300007 6.699995 4294901760
-70.300003 -55.300007 7.699995 4294901760
-70.300003 -55.100006 6.4999952 4294901760
-70.300003 -55.100006 6.699995 4294901760
-70.300003 -55.100006 7.699995 4294901760
-70.300003 -54.900005 6.4999952 4294901760
-70.300003 -54.900005 6.699995 4294901760
-70.300003 -54.900005 7.699995 4294901760
-70.300003 -54.700005 6.4999952 4294901760
-70.300003 -54.700005 6.699995 4294901760
-70.300003 -54.700005 7.699995 4294901760
-70.300003 -54.500004 6.2999949 4294901760
-70.300003 -54.500004 6.4999952 4294901760
-70.300003 -54.500004 7.699995 4294901760
-70.300003 -54.300007 6.2999949 4294901760
-70.300003 -54.300007 6.4999952 4294901760
-70.300003 -54.300007 7.699995 4294901760
-70.300003 -54.100006 6.2999949 4294901760
-70.300003 -54.100006 6.4999952 4294901760
-70.300003 -54.100006 7.4999952 4294901760
-70.300003 -53.900005 6.2999949 4294901760
-70.300003 -53.900005 6.4999952 4294901760
-70.300003 -53.900005 7.4999952 4294901760
-70.300003 -53.700005 6.2999949 4294901760
-70.300003 -53.700005 6.4999952 4294901760
-70.300003 -53.700005 7.4999952 4294901760
-70.300003 -53.500004 6.2999949 4294901760
-70.300003 -53.500004 6.4999952 4294901760
-70.300003 -53.500004 7.4999952 4294901760
-70.300003 -53.300007 6.2999949 4294901760
-70.300003 -53.300007 6.4999952 4294901760
-70.300003 -53.300007 7.4999952 4294901760
-70.300003 -53.100006 6.2999949 4294901760
-70.300003 -53.100006 6.4999952 4294901760
-70.300003 -53.100006 7.4999952 4294901760
-70.300003 -52.900005 6.2999949 4294901760
-70.300003 -52.900005 6.4999952 4294901760
-70.300003 -52.900005 7.4999952 4294901760
-70.300003 -52.700005 6.0999951 4294901760
-70.300003 -52.700005 7.4999952 4294901760
-70.300003 -52.500004 6.0999951 4294901760
-70.300003 -52.500004 7.4999952 4294901760
-70.300003 -52.300007 6.0999951 4294901760
-70.300003 -52.300007 7.2999949 4294901760
-70.300003 -52.100006 6.0999951 4294901760
-70.300003 -52.100006 7.2999949 4294901760
-70.300003 -51.900005 6.0999951 4294901760
-70.300003 -51.900005 7.2999949 4294901760
-70.300003 -51.700005 6.0999951 4294901760
-70.300003 -51.700005 7.2999949 4294901760
-70.300003 -51.500004 6.0999951 4294901760
-70.300003 -51.500004 7.2999949 4294901760
-70.300003 -51.300007 6.0999951 4294901760
-70.300003 -51.300007 7.2999949 4294901760
-70.300003 -51.100006 6.0999951 4294901760
-70.300003 -51.100006 7.2999949 4294901760
-70.300003 -50.900005 6.0999951 4294901760
-70.300003 -50.900005 7.2999949 4294901760
-70.300003 -50.700005 5.8999949 4294901760
-70.300003 -50.700005 7.0999951 4294901760
-70.300003 -50.500004 5.8999949 4294901760
-70.300003 -50.500004 7.0999951 4294901760
-70.300003 -50.300007 5.8999949 4294901760
-70.300003 -50.300007 7.0999951 4294901760
-70.300003 -50.100006 5.8999949 4294901760
-70.300003 -50.100006 7.0999951 4294901760
-70.300003 -49.900005 5.8999949 4294901760
-70.300003 -49.900005 6.8999949 4294901760
-70.300003 -49.700005 5.8999949 4294901760
-70.300003 -49.700005 6.8999949 4294901760
-70.300003 -49.500004 5.8999949 4294901760
-70.300003 -49.500004 6.8999949 4294901760
-70.300003 -49.300007 5.8999949 4294901760
-70.300003 -49.300007 6.8999949 4294901760
-70.300003 -49.100006 5.8999949 4294901760
-70.300003 -49.100006 6.8999949 4294901760
-70.300003 -48.900005 5.699995 4294901760
-70.300003 -48.900005 5.8999949 4294901760
-70.300003 -48.900005 6.699995 4294901760
-70.300003 -48.700005 5.699995 4294901760
-70.300003 -48.700005 6.699995 4294901760
-70.300003 -48.500004 5.699995 4294901760
-70.300003 -48.500004 6.699995 4294901760
-70.300003 -48.300007 5.699995 4294901760
-70.300003 -48.300007 6.699995 4294901760
-70.300003 -48.100006 5.699995 4294901760
-70.300003 -48.100006 6.4999952 4294901760
-70.300003 -47.900005 5.699995 4294901760
-70.300003 -47.900005 6.4999952 4294901760
-70.300003 -47.700005 5.699995 4294901760
-70.300003 -47.700005 6.4999952 4294901760
-70.300003 -47.500004 5.699995 4294901760
-70.300003 -47.500004 6.4999952 4294901760
-70.300003 -47.300007 5.699995 4294901760
-70.300003 -47.300007 6.2999949 4294901760
-70.300003 -47.100006 5.699995 4294901760
-70.300003 -47.100006 6.2999949 4294901760
-70.300003 -46.900005 5.699995 4294901760
-70.300003 -46.900005 6.2999949 4294901760
-70.300003 -46.700005 5.4999952 4294901760
-70.300003 -46.700005 5.699995 4294901760
-70.300003 -46.700005 6.2999949 4294901760
-70.300003 -46.500004 5.4999952 4294901760
-70.300003 -46.500004 5.699995 4294901760
-70.300003 -46.500004 6.2999949 4294901760
-70.300003 -46.300007 5.4999952 4294901760
-70.300003 -46.300007 5.699995 4294901760
-70.300003 -46.300007 6.2999949 4294901760
-70.300003 -46.100006 5.4999952 4294901760
-70.300003 -46.100006 5.699995 4294901760
-70.300003 -46.100006 6.2999949 4294901760
-70.300003 -45.900005 5.4999952 4294901760
-70.300003 -45.900005 5.699995 4294901760
-70.300003 -45.900005 6.2999949 4294901760
-70.300003 -45.700005 5.4999952 4294901760
-70.300003 -45.700005 5.699995 4294901760
-70.300003 -45.700005 6.2999949 4294901760
-70.300003 -45.500004 5.4999952 4294901760
-70.300003 -45.500004 5.699995 4294901760
-70.300003 -45.500004 6.2999949 4294901760
-70.300003 -45.300007 5.4999952 4294901760
-70.300003 -45.300007 5.699995 4294901760
-70.300003 -45.300007 6.2999949 4294901760
-70.300003 -45.100006 5.4999952 4294901760
-70.300003 -45.100006 5.699995 4294901760
-70.300003 -45.100006 6.2999949 4294901760
-70.300003 -44.900005 5.2999949 4294901760
-70.300003 -44.900005 5.4999952 4294901760
-70.300003 -44.900005 6.2999949 4294901760
-70.300003 -44.700005 5.2999949 4294901760
-70.300003 -44.700005 5.4999952 4294901760
-70.300003 -44.700005 6.2999949 4294901760
-70.300003 -44.500004 5.2999949 4294901760
-70.300003 -44.500004 5.4999952 4294901760
-70.300003 -44.500004 6.2999949 4294901760
-70.300003 -44.300007 5.2999949 4294901760
-70.300003 -44.300007 5.4999952 4294901760
-70.300003 -44.300007 6.2999949 4294901760
-70.300003 -44.100006 5.2999949 4294901760
-70.300003 -44.100006 5.4999952 4294901760
-70.300003 -44.100006 6.2999949 4294901760
-70.300003 -43.900005 5.2999949 4294901760
-70.300003 -43.900005 5.4999952 4294901760
-70.300003 -43.900005 6.2999949 4294901760
-70.300003 -43.700005 5.2999949 4294901760
-70.300003 -43.700005 5.4999952 4294901760
-70.300003 -43.700005 6.2999949 4294901760
-70.300003 -43.500004 5.2999949 4294901760
-70.300003 -43.500004 5.4999952 4294901760
-70.300003 -43.500004 6.2999949 4294901760
-70.300003 -43.300007 5.2999949 4294901760
-70.300003 -43.300007 5.4999952 4294901760
-70.300003 -43.300007 6.2999949 4294901760
-70.300003 -43.100006 5.2999949 4294901760
-70.300003 -43.100006 5.4999952 4294901760
-70.300003 -43.100006 6.2999949 4294901760
-70.300003 -42.900005 5.2999949 4294901760
-70.300003 -42.900005 5.4999952 4294901760
-70.300003 -42.900005 6.2999949 4294901760
-70.300003 -42.700005 5.2999949 4294901760
-70.300003 -42.700005 5.4999952 4294901760
-70.300003 -42.700005 6.2999949 4294901760
-70.300003 -42.500004 5.2999949 4294901760
-70.300003 -42.500004 5.4999952 4294901760
-70.300003 -42.500004 6.2999949 4294901760
-70.300003 -42.300007 5.2999949 4294901760
-70.300003 -42.300007 5.4999952 4294901760
-70.300003 -42.300007 6.2999949 4294901760
-70.300003 -42.100006 5.2999949 4294901760
-70.300003 -42.100006 5.4999952 4294901760
-70.300003 -42.100006 6.2999949 4294901760
-70.300003 -41.900005 5.2999949 4294901760
-70.300003 -41.900005 5.4999952 4294901760
-70.300003 -41.900005 6.2999949 4294901760
-70.300003 -41.700005 5.2999949 4294901760
-70.300003 -41.700005 5.4999952 4294901760
-70.300003 -41.700005 6.2999949 4294901760
-70.300003 -41.500004 5.2999949 4294901760
-70.300003 -41.500004 5.4999952 4294901760
-70.300003 -41.500004 6.2999949 4294901760
-70.300003 -41.300007 5.2999949 4294901760
-70.300003 -41.300007 5.4999952 4294901760
-70.300003 -41.300007 6.2999949 4294901760
-70.300003 -41.100006 5.2999949 4294901760
-70.300003 -41.100006 5.4999952 4294901760
-70.300003 -41.100006 6.2999949 4294901760
-70.300003 -40.900005 5.4999952 4294901760
-70.300003 -40.900005 5.699995 4294901760
-70.300003 -40.900005 6.2999949 4294901760
-70.300003 -40.700005 5.4999952 4294901760
-70.300003 -40.700005 5.699995 4294901760
-70.300003 -40.700005 6.2999949 4294901760
-70.300003 -40.500004 5.4999952 4294901760
-70.300003 -40.500004 5.699995 4294901760
-70.300003 -40.500004 6.2999949 4294901760
-70.300003 -40.300007 5.4999952 4294901760
-70.300003 -40.300007 5.699995 4294901760
-70.300003 -40.300007 6.2999949 4294901760
-70.300003 -40.100006 5.4999952 4294901760
-70.300003 -40.100006 5.699995 4294901760
-70.300003 -40.100006 6.2999949 4294901760
-70.300003 -39.900005 5.4999952 4294901760
-70.300003 -39.900005 5.699995 4294901760
-70.300003 -39.900005 6.2999949 4294901760
-70.300003 -39.700005 5.4999952 4294901760
-70.300003 -39.700005 5.699995 4294901760
-70.300003 -39.700005 6.2999949 4294901760
-70.300003 -39.500004 5.4999952 4294901760
-70.300003 -39.500004 5.699995 4294901760
-70.300003 -39.500004 6.2999949 4294901760
-70.300003 -39.300007 5.4999952 4294901760
-70.300003 -39.300007 5.699995 4294901760
-70.300003 -39.300007 6.2999949 4294901760
-70.300003 -39.100006 5.4999952 4294901760
-70.300003 -39.100006 5.699995 4294901760
-70.300003 -39.100006 6.2999949 4294901760
-70.300003 -38.900005 5.4999952 4294901760
-70.300003 -38.900005 5.699995 4294901760
-70.300003 -38.900005 6.2999949 4294901760
-70.300003 -38.700005 5.4999952 4294901760
-70.300003 -38.700005 5.699995 4294901760
-70.300003 -38.700005 6.2999949 4294901760
-70.300003 -38.500004 5.4999952 4294901760
-70.300003 -38.500004 5.699995 4294901760
-70.300003 -38.500004 6.2999949 4294901760
-70.300003 -38.300007 5.4999952 4294901760
-70.300003 -38.300007 5.699995 4294901760
-70.300003 -38.300007 6.2999949 4294901760
-70.300003 -38.100006 5.4999952 4294901760
-70.300003 -38.100006 5.699995 4294901760
-70.300003 -38.100006 6.2999949 4294901760
-70.300003 -37.900005 5.4999952 4294901760
-70.300003 -37.900005 5.699995 4294901760
-70.300003 -37.900005 6.2999949 4294901760
-70.300003 -37.700005 5.4999952 4294901760
-70.300003 -37.700005 5.699995 4294901760
-70.300003 -37.700005 6.2999949 4294901760
-70.300003 -37.500004 5.4999952 4294901760
-70.300003 -37.500004 5.699995 4294901760
-70.300003 -37.500004 6.2999949 4294901760
-70.300003 -37.300007 5.4999952 4294901760
-70.300003 -37.300007 5.699995 4294901760
-70.300003 -37.300007 6.2999949 4294901760
-70.300003 -37.100006 5.2999949 4294901760
-70.300003 -37.100006 5.4999952 4294901760
-70.300003 -37.100006 6.2999949 4294901760
-70.300003 -36.900005 5.2999949 4294901760
-70.300003 -36.900005 5.4999952 4294901760
-70.300003 -36.900005 6.2999949 4294901760
-70.300003 -36.700005 5.2999949 4294901760
-70.300003 -36.700005 5.4999952 4294901760
-70.300003 -36.700005 6.2999949 4294901760
-70.300003 -36.500004 5.2999949 4294901760
-70.300003 -36.500004 5.4999952 4294901760
-70.300003 -36.500004 6.2999949 4294901760
-70.300003 -36.300007 5.2999949 4294901760
-70.300003 -36.300007 5.4999952 4294901760
-70.300003 -36.300007 6.2999949 4294901760
-70.300003 -36.100006 5.2999949 4294901760
-70.300003 -36.100006 5.4999952 4294901760
-70.300003 -36.100006 6.2999949 4294901760
-70.300003 -35.900005 5.2999949 4294901760
-70.300003 -35.900005 5.4999952 4294901760
-70.300003 -35.900005 6.2999949 4294901760
-70.300003 -35.700005 5.2999949 4294901760
-70.300003 -35.700005 5.4999952 4294901760
-70.300003 -35.700005 6.2999949 4294901760
-70.300003 -35.500004 5.2999949 4294901760
-70.300003 -35.500004 5.4999952 4294901760
-70.300003 -35.500004 6.2999949 4294901760
-70.300003 -35.300007 5.2999949 4294901760
-70.300003 -35.300007 5.4999952 4294901760
-70.300003 -35.300007 6.2999949 4294901760
-70.300003 -35.100006 5.2999949 4294901760
-70.300003 -35.100006 5.4999952 4294901760
-70.300003 -35.100006 6.2999949 4294901760
-70.300003 -34.900005 5.2999949 4294901760
-70.300003 -34.900005 5.4999952 4294901760
-70.300003 -34.900005 6.2999949 4294901760
-70.300003 -34.700005 5.2999949 4294901760
-70.300003 -34.700005 5.4999952 4294901760
-70.300003 -34.700005 6.2999949 4294901760
-70.300003 -34.500004 5.2999949 4294901760
-70.300003 -34.500004 5.4999952 4294901760
-70.300003 -34.500004 6.2999949 4294901760
-70.300003 -34.300007 5.2999949 4294901760
-70.300003 -34.300007 5.4999952 4294901760
-70.300003 -34.300007 6.2999949 4294901760
-70.300003 -34.100006 5.2999949 4294901760
-70.300003 -34.100006 5.4999952 4294901760
-70.300003 -34.100006 6.2999949 4294901760
-70.300003 -33.900005 5.2999949 4294901760
-70.300003 -33.900005 5.4999952 4294901760
-70.300003 -33.900005 6.2999949 4294901760
-70.300003 -33.700005 5.2999949 4294901760
-70.300003 -33.700005 5.4999952 4294901760
-70.300003 -33.700005 6.2999949 4294901760
-70.300003 -33.500004 5.2999949 4294901760
-70.300003 -33.500004 5.4999952 4294901760
-70.300003 -33.500004 6.2999949 4294901760
-70.300003 -33.300007 5.2999949 4294901760
-70.300003 -33.300007 5.4999952 4294901760
-70.300003 -33.300007 6.2999949 4294901760
-70.300003 -33.100006 5.2999949 4294901760
-70.300003 -33.100006 5.4999952 4294901760
-70.300003 -33.100006 6.2999949 4294901760
-70.300003 -32.900005 5.2999949 4294901760
-70.300003 -32.900005 5.4999952 4294901760
-70.300003 -32.900005 6.2999949 4294901760
-70.300003 -32.700005 5.2999949 4294901760
-70.300003 -32.700005 5.4999952 4294901760
-70.300003 -32.700005 6.2999949 4294901760
-70.300003 -32.500004 5.2999949 4294901760
-70.300003 -32.500004 5.4999952 4294901760
-70.300003 -32.500004 6.2999949 4294901760
-70.300003 -32.300007 5.2999949 4294901760
-70.300003 -32.300007 5.4999952 4294901760
-70.300003 -32.300007 6.2999949 4294901760
-70.300003 -32.100006 5.2999949 4294901760
-70.300003 -32.100006 5.4999952 4294901760
-70.300003 -32.100006 6.2999949 4294901760
-70.300003 -31.900005 5.2999949 4294901760
-70.300003 -31.900005 5.4999952 4294901760
-70.300003 -31.900005 6.2999949 4294901760
-70.300003 -31.700005 5.2999949 4294901760
-70.300003 -31.700005 5.4999952 4294901760
-70.300003 -31.700005 6.2999949 4294901760
-70.300003 -31.500006 5.2999949 4294901760
-70.300003 -31.500006 5.4999952 4294901760
-70.300003 -31.500006 6.2999949 4294901760
-70.300003 -31.300005 5.2999949 4294901760
-70.300003 -31.300005 5.4999952 4294901760
-70.300003 -31.300005 6.2999949 4294901760
-70.300003 -31.100004 5.2999949 4294901760
-70.300003 -31.100004 6.2999949 4294901760
-70.300003 -30.900005 5.2999949 4294901760
-70.300003 -30.900005 6.2999949 4294901760
-70.300003 -30.700005 5.2999949 4294901760
-70.300003 -30.700005 6.2999949 4294901760
-70.300003 -30.500006 5.2999949 4294901760
-70.300003 -30.500006 6.0999951 4294901760
-70.300003 -30.300005 5.2999949 4294901760
-70.300003 -30.300005 6.0999951 4294901760
-70.300003 -30.100004 5.2999949 4294901760
-70.300003 -30.100004 6.0999951 4294901760
-70.300003 -29.900005 5.2999949 4294901760
-70.300003 -29.900005 6.0999951 4294901760
-70.300003 -29.700005 5.2999949 4294901760
-70.300003 -29.700005 6.0999951 4294901760
-70.300003 -29.500006 5.2999949 4294901760
-70.300003 -29.500006 6.0999951 4294901760
-70.300003 -29.300005 5.2999949 4294901760
-70.300003 -29.300005 6.0999951 4294901760
-70.300003 -29.100004 5.0999951 4294901760
-70.300003 -29.100004 5.2999949 4294901760
-70.300003 -29.100004 6.0999951 4294901760
-70.300003 -28.900005 5.0999951 4294901760
-70.300003 -28.900005 5.2999949 4294901760
-70.300003 -28.900005 6.0999951 4294901760
-70.300003 -28.700005 5.0999951 4294901760
-70.300003 -28.700005 5.2999949 4294901760
-70.300003 -28.700005 5.8999949 4294901760
-70.300003 -28.500006 5.0999951 4294901760
-70.300003 -28.500006 5.2999949 4294901760
-70.300003 -28.500006 5.8999949 4294901760
-70.300003 -28.300005 5.0999951 4294901760
-70.300003 -28.300005 5.2999949 4294901760
-70.300003 -28.300005 5.8999949 4294901760
-70.300003 -28.100004 5.0999951 4294901760
-70.300003 -28.100004 5.2999949 4294901760
-70.300003 -28.100004 5.8999949 4294901760
-70.300003 -27.900005 5.0999951 4294901760
-70.300003 -27.900005 5.2999949 4294901760
-70.300003 -27.900005 5.8999949 4294901760
-70.300003 -27.700005 5.0999951 4294901760
-70.300003 -27.700005 5.2999949 4294901760
-70.300003 -27.700005 5.8999949 4294901760
-70.300003 -27.500006 5.0999951 4294901760
-70.300003 -27.500006 5.2999949 4294901760
-70.300003 -27.500006 5.8999949 4294901760
-70.300003 -27.300005 5.0999951 4294901760
-70.300003 -27.300005 5.2999949 4294901760
-70.300003 -27.300005 5.8999949 4294901760
-70.300003 -27.100004 5.0999951 4294901760
-70.300003 -27.100004 5.2999949 4294901760
-70.300003 -27.100004 5.8999949 4294901760
-70.300003 -26.900005 5.0999951 4294901760
-70.300003 -26.900005 5.2999949 4294901760
-70.300003 -26.900005 5.8999949 4294901760
-70.300003 -26.700005 5.0999951 4294901760
-70.300003 -26.700005 5.2999949 4294901760
-70.300003 -26.700005 5.8999949 4294901760
-70.300003 -26.500006 5.0999951 4294901760
-70.300003 -26.500006 5.2999949 4294901760
-70.300003 -26.500006 5.8999949 4294901760
-70.300003 -26.300005 5.0999951 4294901760
-70.300003 -26.300005 5.2999949 4294901760
-70.300003 -26.300005 5.8999949 4294901760
-70.300003 -26.100004 5.0999951 4294901760
-70.300003 -26.100004 5.2999949 4294901760
-70.300003 -26.100004 5.8999949 4294901760
-70.300003 -25.900005 5.0999951 4294901760
-70.300003 -25.900005 5.2999949 4294901760
-70.300003 -25.900005 5.8999949 4294901760
-70.300003 -25.700005 5.0999951 4294901760
-70.300003 -25.700005 5.2999949 4294901760
-70.300003 -25.700005 6.0999951 4294901760
-70.300003 -25.500006 5.0999951 4294901760
-70.300003 -25.500006 5.2999949 4294901760
-70.300003 -25.500006 6.0999951 4294901760
-70.300003 -25.300005 5.2999949 4294901760
-70.300003 -25.300005 5.4999952 4294901760
-70.300003 -25.300005 6.0999951 4294901760
-70.300003 -25.100004 5.2999949 4294901760
-70.300003 -25.100004 5.4999952 4294901760
-70.300003 -25.100004 6.0999951 4294901760
-70.300003 -24.900005 5.2999949 4294901760
-70.300003 -24.900005 5.4999952 4294901760
-70.300003 -24.900005 6.0999951 4294901760
-70.300003 -24.700005 5.2999949 4294901760
-70.300003 -24.700005 5.4999952 4294901760
-70.300003 -24.700005 6.0999951 4294901760
-70.300003 -24.500006 5.2999949 4294901760
-70.300003 -24.500006 5.4999952 4294901760
-70.300003 -24.500006 6.0999951 4294901760
-70.300003 -24.300005 5.2999949 4294901760
-70.300003 -24.300005 5.4999952 4294901760
-70.300003 -24.300005 6.0999951 4294901760
-70.300003 -24.100004 5.2999949 4294901760
-70.300003 -24.100004 5.4999952 4294901760
-70.300003 -24.100004 6.2999949 4294901760
-70.300003 -23.900005 5.2999949 4294901760
-70.300003 -23.900005 5.4999952 4294901760
-70.300003 -23.900005 6.2999949 4294901760
-70.300003 -23.700005 5.2999949 4294901760
-70.300003 -23.700005 5.4999952 4294901760
-70.300003 -23.700005 6.2999949 4294901760
-70.300003 -23.500006 5.2999949 4294901760
-70.300003 -23.500006 5.4999952 4294901760
-70.300003 -23.500006 6.2999949 4294901760
-70.300003 -23.300005 5.699995 4294901760
-70.300003 -23.300005 6.2999949 4294901760
-70.300003 -23.100004 5.699995 4294901760
-70.300003 -23.100004 6.2999949 4294901760
-70.300003 -22.900005 5.699995 4294901760
-70.300003 -22.900005 6.4999952 4294901760
-70.300003 -22.700005 5.699995 4294901760
-70.300003 -22.700005 6.4999952 4294901760
-70.300003 -22.500006 5.699995 4294901760
-70.300003 -22.500006 6.4999952 4294901760
-70.300003 -22.300005 5.699995 4294901760
-70.300003 -22.300005 6.4999952 4294901760
-70.300003 -22.100004 5.699995 4294901760
-70.300003 -22.100004 6.699995 4294901760
-70.300003 -21.900005 5.699995 4294901760
-70.300003 -21.900005 6.699995 4294901760
-70.300003 -21.700005 5.699995 4294901760
-70.300003 -21.700005 6.699995 4294901760
-70.300003 -21.500006 5.699995 4294901760
-70.300003 -21.500006 6.699995 4294901760
-70.300003 -21.300005 6.0999951 4294901760
-70.300003 -21.300005 6.699995 4294901760
-70.300003 -21.100004 6.0999951 4294901760
-70.300003 -21.100004 6.8999949 4294901760
-70.300003 -20.900005 6.0999951 4294901760
-70.300003 -20.900005 6.8999949 4294901760
-70.300003 -20.700005 6.0999951 4294901760
-70.300003 -20.700005 6.8999949 4294901760
-70.300003 -20.500006 6.0999951 4294901760
-70.300003 -20.500006 6.8999949 4294901760
-70.300003 -20.300005 6.0999951 4294901760
-70.300003 -20.300005 7.0999951 4294901760
-70.300003 -20.100004 6.0999951 4294901760
-70.300003 -20.100004 7.0999951 4294901760
-70.300003 -19.900005 6.0999951 4294901760
-70.300003 -19.900005 7.0999951 4294901760
-70.300003 -19.700005 6.0999951 4294901760
-70.300003 -19.700005 7.0999951 4294901760
-70.300003 -19.500006 6.0999951 4294901760
-70.300003 -19.500006 6.4999952 4294901760
-70.300003 -19.500006 6.699995 4294901760
-70.300003 -19.500006 7.2999949 4294901760
-70.300003 -19.300005 6.4999952 4294901760
-70.300003 -19.300005 6.699995 4294901760
-70.300003 -19.300005 7.2999949 4294901760
-70.300003 -19.100004 6.4999952 4294901760
-70.300003 -19.100004 6.699995 4294901760
-70.300003 -19.100004 7.2999949 4294901760
-70.300003 -18.900005 6.4999952 4294901760
-70.300003 -18.900005 6.699995 4294901760
-70.300003 -18.900005 7.2999949 4294901760
-70.300003 -18.700005 6.4999952 4294901760
-70.300003 -18.700005 6.699995 4294901760
-70.300003 -18.700005 7.4999952 4294901760
-70.300003 -18.500006 6.4999952 4294901760
-70.300003 -18.500006 6.699995 4294901760
-70.300003 -18.500006 7.4999952 4294901760
-70.300003 -18.300005 6.4999952 4294901760
-70.300003 -18.300005 6.699995 4294901760
-70.300003 -18.300005 7.4999952 4294901760
-70.300003 -18.100004 6.4999952 4294901760
-70.300003 -18.100004 6.699995 4294901760
-70.300003 -18.100004 7.4999952 4294901760
-70.300003 -17.900005 6.4999952 4294901760
-70.300003 -17.900005 6.699995 4294901760
-70.300003 -17.900005 7.4999952 4294901760
-70.300003 -17.700005 6.4999952 4294901760
-70.300003 -17.700005 6.699995 4294901760
-70.300003 -17.700005 7.699995 4294901760
-70.300003 -17.500006 6.699995 4294901760
-70.300003 -17.500006 7.0999951 4294901760
-70.300003 -17.500006 7.699995 4294901760
-70.300003 -17.300005 7.0999951 4294901760
-70.300003 -17.300005 7.699995 4294901760
-70.300003 -17.100004 7.0999951 4294901760
-70.300003 -17.100004 7.699995 4294901760
-70.300003 -16.900005 7.0999951 4294901760
-70.300003 -16.900005 7.8999949 4294901760
-70.300003 -16.700005 7.0999951 4294901760
-70.300003 -16.700005 7.8999949 4294901760
-70.300003 -16.500006 7.0999951 4294901760
-70.300003 -16.500006 7.8999949 4294901760
-70.300003 -16.300005 7.0999951 4294901760
-70.300003 -16.300005 7.8999949 4294901760
-70.300003 -16.100004 7.0999951 4294901760
-70.300003 -16.100004 8.0999947 4294901760
-70.300003 -15.900005 7.0999951 4294901760
-70.300003 -15.900005 8.0999947 4294901760
-70.300003 -15.700005 7.0999951 4294901760
-70.300003 -15.700005 8.0999947 4294901760
-70.300003 -15.500005 7.4999952 4294901760
-70.300003 -15.500005 8.0999947 4294901760
-70.300003 -15.300005 7.4999952 4294901760
-70.300003 -15.300005 8.2999954 4294901760
-70.300003 -15.100005 7.4999952 4294901760
-70.300003 -15.100005 8.2999954 4294901760
-70.300003 -14.900005 7.4999952 4294901760
-70.300003 -14.900005 8.4999952 4294901760
-70.300003 -14.700005 7.4999952 4294901760
-70.300003 -14.700005 8.4999952 4294901760
-70.300003 -14.500005 7.4999952 4294901760
-70.300003 -14.500005 8.699995 4294901760
-70.300003 -14.300005 7.4999952 4294901760
-70.300003 -14.300005 8.699995 4294901760
-70.300003 -14.100005 7.4999952 4294901760
-70.300003 -14.100005 8.8999949 4294901760
-70.300003 -13.900005 7.4999952 4294901760
-70.300003 -13.900005 8.8999949 4294901760
-70.300003 -13.700005 7.4999952 4294901760
-70.300003 -13.700005 9.0999947 4294901760
-70.300003 -13.500005 8.2999954 4294901760
-70.300003 -13.500005 9.0999947 4294901760
-70.300003 -13.300005 8.2999954 4294901760
-70.300003 -13.300005 9.2999954 4294901760
-70.300003 -13.100005 8.2999954 4294901760
-70.300003 -13.100005 9.2999954 4294901760
-70.300003 -12.900005 8.2999954 4294901760
-70.300003 -12.900005 9.4999952 4294901760
-70.300003 -12.700005 8.2999954 4294901760
-70.300003 -12.700005 9.4999952 4294901760
-70.300003 -12.500005 8.2999954 4294901760
-70.300003 -12.500005 9.699995 4294901760
-70.300003 -12.300005 8.2999954 4294901760
-70.300003 -12.300005 9.699995 4294901760
-70.300003 -12.100005 8.2999954 4294901760
-70.300003 -12.100005 9.8999949 4294901760
-70.300003 -11.900005 8.2999954 4294901760
-70.300003 -11.900005 9.8999949 4294901760
-70.300003 -11.700005 8.2999954 4294901760
-70.300003 -11.700005 9.0999947 4294901760
-70.300003 -11.700005 9.8999949 4294901760
-70.300003 -11.500005 9.0999947 4294901760
-70.300003 -11.300005 9.0999947 4294901760
-70.300003 -11.100005 9.0999947 4294901760
-70.300003 -10.900005 9.0999947 4294901760
-70.300003 -10.700005 9.0999947 4294901760
-70.300003 -10.500005 9.0999947 4294901760
-70.300003 -10.300005 9.0999947 4294901760
-70.300003 -10.100005 9.0999947 4294901760
-70.300003 -9.9000053 9.0999947 4294901760
-70.300003 -9.7000046 9.0999947 4294901760
-70.300003 -9.7000046 9.699995 4294901760
-70.300003 -9.7000046 9.8999949 4294901760
-70.300003 -9.5000048 9.699995 4294901760
-70.300003 -9.5000048 9.8999949 4294901760
-70.300003 -9.300005 9.699995 4294901760
-70.300003 -9.300005 9.8999949 4294901760
-70.300003 -9.1000051 9.699995 4294901760
-70.300003 -9.1000051 9.8999949 4294901760
-70.300003 -8.9000053 9.699995 4294901760
-70.300003 -8.9000053 9.8999949 4294901760
-70.300003 -8.7000046 9.699995 4294901760
-70.300003 -8.7000046 9.8999949 4294901760
-70.300003 -8.5000048 9.699995 4294901760
-70.300003 -8.5000048 9.8999949 4294901760
-70.300003 -8.300005 9.699995 4294901760
-70.300003 -8.300005 9.8999949 4294901760
-70.300003 -8.1000051 9.699995 4294901760
-70.300003 -8.1000051 9.8999949 4294901760
-70.300003 -7.9000049 9.699995 4294901760
-70.300003 -7.9000049 9.8999949 4294901760
-70.100006 -70.300003 9.8999949 4294901760
-70.100006 -70.100006 9.8999949 4294901760
-70.100006 -69.900002 9.8999949 4294901760
-70.100006 -69.700005 9.8999949 4294901760
-70.100006 -69.500008 9.8999949 4294901760
-70.100006 -69.300003 9.8999949 4294901760
-70.100006 -69.100006 9.8999949 4294901760
-70.100006 -68.900002 9.8999949 4294901760
-70.100006 -68.700005 9.8999949 4294901760
-70.100006 -68.500008 9.8999949 4294901760
-70.100006 -68.300003 9.0999947 4294901760
-70.100006 -68.100006 9.0999947 4294901760
-70.100006 -67.900002 9.0999947 4294901760
-70.100006 -67.700005 9.0999947 4294901760
-70.100006 -67.500008 9.0999947 4294901760
-70.100006 -67.300003 9.0999947 4294901760
-70.100006 -67.100006 9.0999947 4294901760
-70.100006 -66.900002 9.0999947 4294901760
-70.100006 -66.700005 9.0999947 4294901760
-70.100006 -66.500008 8.4999952 4294901760
-70.100006 -66.500008 9.0999947 4294901760
-70.100006 -66.300003 8.4999952 4294901760
-70.100006 -66.100006 8.4999952 4294901760
-70.100006 -65.900002 8.4999952 4294901760
-70.100006 -65.700005 8.4999952 4294901760
-70.100006 -65.500008 8.4999952 4294901760
-70.100006 -65.300003 8.4999952 4294901760
-70.100006 -65.300003 9.8999949 4294901760
-70.100006 -65.100006 8.4999952 4294901760
-70.100006 -65.100006 9.8999949 4294901760
-70.100006 -64.900002 8.4999952 4294901760
-70.100006 -64.900002 9.699995 4294901760
-70.100006 -64.700005 8.4999952 4294901760
-70.100006 -64.700005 9.699995 4294901760
-70.100006 -64.500008 7.8999949 4294901760
-70.100006 -64.500008 8.4999952 4294901760
-70.100006 -64.500008 9.699995 4294901760
-70.100006 -64.300003 7.699995 4294901760
-70.100006 -64.300003 7.8999949 4294901760
-70.100006 -64.300003 9.4999952 4294901760
-70.100006 -64.100006 7.699995 4294901760
-70.100006 -64.100006 7.8999949 4294901760
-70.100006 -64.100006 9.4999952 4294901760
-70.100006 -63.900005 7.699995 4294901760
-70.100006 -63.900005 7.8999949 4294901760
-70.100006 -63.900005 9.4999952 4294901760
-70.100006 -63.700005 7.699995 4294901760
-70.100006 -63.700005 7.8999949 4294901760
-70.100006 -63.700005 9.2999954 4294901760
-70.100006 -63.500004 7.699995 4294901760
-70.100006 -63.500004 7.8999949 4294901760
-70.100006 -63.500004 9.2999954 4294901760
-70.100006 -63.300007 7.699995 4294901760
-70.100006 -63.300007 7.8999949 4294901760
-70.100006 -63.300007 9.2999954 4294901760
-70.100006 -63.100006 7.699995 4294901760
-70.100006 -63.100006 7.8999949 4294901760
-70.100006 -63.100006 9.0999947 4294901760
-70.100006 -62.900005 7.699995 4294901760
-70.100006 -62.900005 7.8999949 4294901760
-70.100006 -62.900005 9.0999947 4294901760
-70.100006 -62.700005 7.699995 4294901760
-70.100006 -62.700005 7.8999949 4294901760
-70.100006 -62.700005 9.0999947 4294901760
-70.100006 -62.500004 7.4999952 4294901760
-70.100006 -62.500004 7.699995 4294901760
-70.100006 -62.500004 7.8999949 4294901760
-70.100006 -62.500004 8.8999949 4294901760
-70.100006 -62.300007 7.2999949 4294901760
-70.100006 -62.300007 7.4999952 4294901760
-70.100006 -62.300007 8.8999949 4294901760
-70.100006 -62.100006 7.2999949 4294901760
-70.100006 -62.100006 7.4999952 4294901760
-70.100006 -62.100006 8.8999949 4294901760
-70.100006 -61.900005 7.2999949 4294901760
-70.100006 -61.900005 7.4999952 4294901760
-70.100006 -61.900005 8.8999949 4294901760
-70.100006 -61.700005 7.2999949 4294901760
-70.100006 -61.700005 7.4999952 4294901760
-70.100006 -61.700005 8.699995 4294901760
-70.100006 -61.500004 7.2999949 4294901760
-70.100006 -61.500004 7.4999952 4294901760
-70.100006 -61.500004 8.699995 4294901760
-70.100006 -61.300007 7.2999949 4294901760
-70.100006 -61.300007 7.4999952 4294901760
-70.100006 -61.300007 8.699995 4294901760
-70.100006 -61.100006 7.2999949 4294901760
-70.100006 -61.100006 7.4999952 4294901760
-70.100006 -61.100006 8.699995 4294901760
-70.100006 -60.900005 7.2999949 4294901760
-70.100006 -60.900005 7.4999952 4294901760
-70.100006 -60.900005 8.4999952 4294901760
-70.100006 -60.700005 7.2999949 4294901760
-70.100006 -60.700005 7.4999952 4294901760
-70.100006 -60.700005 8.4999952 4294901760
-70.100006 -60.500004 7.0999951 4294901760
-70.100006 -60.500004 8.4999952 4294901760
-70.100006 -60.300007 7.0999951 4294901760
-70.100006 -60.300007 8.4999952 4294901760
-70.100006 -60.100006 7.0999951 4294901760
-70.100006 -60.100006 8.2999954 4294901760
-70.100006 -59.900005 7.0999951 4294901760
-70.100006 -59.900005 8.2999954 4294901760
-70.100006 -59.700005 7.0999951 4294901760
-70.100006 -59.700005 8.2999954 4294901760
-70.100006 -59.500004 7.0999951 4294901760
-70.100006 -59.500004 8.2999954 4294901760
-70.100006 -59.300007 7.0999951 4294901760
-70.100006 -59.300007 8.2999954 4294901760
-70.100006 -59.100006 7.0999951 4294901760
-70.100006 -59.100006 8.0999947 4294901760
-70.100006 -58.900005 7.0999951 4294901760
-70.100006 -58.900005 8.0999947 4294901760
-70.100006 -58.700005 7.0999951 4294901760
-70.100006 -58.700005 8.0999947 4294901760
-70.100006 -58.500004 6.699995 4294901760
-70.100006 -58.500004 6.8999949 4294901760
-70.100006 -58.500004 8.0999947 4294901760
-70.100006 -58.300007 6.699995 4294901760
-70.100006 -58.300007 6.8999949 4294901760
-70.100006 -58.300007 8.0999947 4294901760
-70.100006 -58.100006 6.699995 4294901760
-70.100006 -58.100006 6.8999949 4294901760
-70.100006 -58.100006 7.8999949 4294901760
-70.100006 -57.900005 6.699995 4294901760
-70.100006 -57.900005 6.8999949 4294901760
-70.100006 -57.900005 7.8999949 4294901760
-70.100006 -57.700005 6.699995 4294901760
-70.100006 -57.700005 6.8999949 4294901760
-70.100006 -57.700005 7.8999949 4294901760
-70.100006 -57.500004 6.699995 4294901760
-70.100006 -57.500004 6.8999949 4294901760
-70.100006 -57.500004 7.8999949 4294901760
-70.100006 -57.300007 6.699995 4294901760
-70.100006 -57.300007 6.8999949 4294901760
-70.100006 -57.300007 7.8999949 4294901760
-70.100006 -57.100006 6.699995 4294901760
-70.100006 -57.100006 6.8999949 4294901760
-70.100006 -57.100006 7.8999949 4294901760
-70.100006 -56.900005 6.699995 4294901760
-70.100006 -56.900005 6.8999949 4294901760
-70.100006 -56.900005 7.8999949 4294901760
-70.100006 -56.700005 6.699995 4294901760
-70.100006 -56.700005 6.8999949 4294901760
-70.100006 -56.700005 7.8999949 4294901760
-70.100006 -56.500004 6.4999952 4294901760
-70.100006 -56.500004 6.699995 4294901760
-70.100006 -56.500004 7.699995 4294901760
-70.100006 -56.300007 6.4999952 4294901760
-70.100006 -56.300007 6.699995 4294901760
-70.100006 -56.300007 7.699995 4294901760
-70.100006 -56.100006 6.4999952 4294901760
-70.100006 -56.100006 6.699995 4294901760
-70.100006 -56.100006 7.699995 4294901760
-70.100006 -55.900005 6.4999952 4294901760
-70.100006 -55.900005 6.699995 4294901760
-70.100006 -55.900005 7.699995 4294901760
-70.100006 -55.700005 6.4999952 4294901760
-70.100006 -55.700005 6.699995 4294901760
-70.100006 -55.700005 7.699995 4294901760
-70.100006 -55.500004 6.4999952 4294901760
-70.100006 -55.500004 6.699995 4294901760
-70.100006 -55.500004 7.699995 4294901760
-70.100006 -55.300007 6.4999952 4294901760
-70.100006 -55.300007 6.699995 4294901760
-70.100006 -55.300007 7.699995 4294901760
-70.100006 -55.100006 6.4999952 4294901760
-70.100006 -55.100006 6.699995 4294901760
-70.100006 -55.100006 7.699995 4294901760
-70.100006 -54.900005 6.4999952 4294901760
-70.100006 -54.900005 6.699995 4294901760
-70.100006 -54.900005 7.4999952 4294901760
-70.100006 -54.700005 6.4999952 4294901760
-70.100006 -54.700005 6.699995 4294901760
-70.100006 -54.700005 7.4999952 4294901760
-70.100006 -54.500004 6.2999949 4294901760
-70.100006 -54.500004 6.4999952 4294901760
-70.100006 -54.500004 7.4999952 4294901760
-70.100006 -54.300007 6.2999949 4294901760
-70.100006 -54.300007 6.4999952 4294901760
-70.100006 -54.300007 7.4999952 4294901760
-70.100006 -54.100006 6.2999949 4294901760
-70.100006 -54.100006 6.4999952 4294901760
-70.100006 -54.100006 7.4999952 4294901760
-70.100006 -53.900005 6.2999949 4294901760
-70.100006 -53.900005 6.4999952 4294901760
-70.100006 -53.900005 7.4999952 4294901760
-70.100006 -53.700005 6.2999949 4294901760
-70.100006 -53.700005 6.4999952 4294901760
-70.100006 -53.700005 7.4999952 4294901760
-70.100006 -53.500004 6.2999949 4294901760
-70.100006 -53.500004 6.4999952 4294901760
-70.100006 -53.500004 7.4999952 4294901760
-70.100006 -53.300007 6.2999949 4294901760
-70.100006 -53.300007 6.4999952 4294901760
-70.100006 -53.300007 7.4999952 4294901760
-70.100006 -53.100006 6.2999949 4294901760
-70.100006 -53.100006 6.4999952 4294901760
-70.100006 -53.100006 7.2999949 4294901760
-70.100006 -52.900005 6.2999949 4294901760
-70.100006 -52.900005 6.4999952 4294901760
-70.100006 -52.900005 7.2999949 4294901760
-70.100006 -52.700005 6.0999951 4294901760
-70.100006 -52.700005 7.2999949 4294901760
-70.100006 -52.500004 6.0999951 4294901760
-70.100006 -52.500004 7.2999949 4294901760
-70.100006 -52.300007 6.0999951 4294901760
-70.100006 -52.300007 7.2999949 4294901760
-70.100006 -52.100006 6.0999951 4294901760
-70.100006 -52.100006 7.2999949 4294901760
-70.100006 -51.900005 6.0999951 4294901760
-70.100006 -51.900005 7.2999949 4294901760
-70.100006 -51.700005 6.0999951 4294901760
-70.100006 -51.700005 7.2999949 4294901760
-70.100006 -51.500004 6.0999951 4294901760
-70.100006 -51.500004 7.0999951 4294901760
-70.100006 -51.300007 6.0999951 4294901760
-70.100006 -51.300007 7.0999951 4294901760
-70.100006 -51.100006 6.0999951 4294901760
-70.100006 -51.100006 7.0999951 4294901760
-70.100006 -50.900005 6.0999951 4294901760
-70.100006 -50.900005 7.0999951 4294901760
-70.100006 -50.700005 5.8999949 4294901760
-70.100006 -50.700005 7.0999951 4294901760
-70.100006 -50.500004 5.8999949 4294901760
-70.100006 -50.500004 7.0999951 4294901760
-70.100006 -50.300007 5.8999949 4294901760
-70.100006 -50.300007 7.0999951 4294901760
-70.100006 -50.100006 5.8999949 4294901760
-70.100006 -50.100006 6.8999949 4294901760
-70.100006 -49.900005 5.8999949 4294901760
-70.100006 -49.900005 6.8999949 4294901760
-70.100006 -49.700005 5.8999949 4294901760
-70.100006 -49.700005 6.8999949 4294901760
-70.100006 -49.500004 5.8999949 4294901760
-70.100006 -49.500004 6.8999949 4294901760
-70.100006 -49.300007 5.8999949 4294901760
-70.100006 -49.300007 6.699995 4294901760
-70.100006 -49.100006 5.8999949 4294901760
-70.100006 -49.100006 6.699995 4294901760
-70.100006 -48.900005 5.699995 4294901760
-70.100006 -48.900005 5.8999949 4294901760
-70.100006 -48.900005 6.699995 4294901760
-70.100006 -48.700005 5.699995 4294901760
-70.100006 -48.700005 6.699995 4294901760
-70.100006 -48.500004 5.699995 4294901760
-70.100006 -48.500004 6.699995 4294901760
-70.100006 -48.300007 5.699995 4294901760
-70.100006 -48.300007 6.4999952 4294901760
-70.100006 -48.100006 5.699995 4294901760
-70.100006 -48.100006 6.4999952 4294901760
-70.100006 -47.900005 5.699995 4294901760
-70.100006 -47.900005 6.4999952 4294901760
-70.100006 -47.700005 5.699995 4294901760
-70.100006 -47.700005 6.4999952 4294901760
-70.100006 -47.500004 5.699995 4294901760
-70.100006 -47.500004 6.2999949 4294901760
-70.100006 -47.300007 5.699995 4294901760
-70.100006 -47.300007 6.2999949 4294901760
-70.100006 -47.100006 5.699995 4294901760
-70.100006 -47.100006 6.2999949 4294901760
-70.100006 -46.900005 5.699995 4294901760
